ply
format ascii 1.0
element vertex 692
property double x
property double y
property double z
property double nx
property double ny
property double nz
property uchar red
property uchar green
property uchar blue
end_header
0.003982 -0.034945 0.169406 -0.682666 -0.063442 -0.727971 105 105 105
0.003972 -0.034756 0.169393 -0.687524 -0.037199 -0.725208 105 105 105
0.003969 -0.034569 0.169395 -0.686095 0.090314 -0.721884 105 105 105
0.003981 -0.034385 0.169426 -0.674464 0.221972 -0.704150 106 106 106
0.004004 -0.034205 0.169480 -0.650696 0.319877 -0.688676 106 106 106
0.004032 -0.034025 0.169545 -0.629745 0.334403 -0.701139 107 107 107
0.004059 -0.033845 0.169606 -0.630504 0.292196 -0.719087 106 106 106
0.004079 -0.033664 0.169654 -0.648203 0.226743 -0.726926 107 107 107
0.004093 -0.033480 0.169688 -0.666008 0.150336 -0.730639 108 108 108
0.004102 -0.033296 0.169712 -0.689531 0.103958 -0.716756 107 107 107
0.004109 -0.033110 0.169732 -0.713331 0.085858 -0.695548 109 109 109
0.004114 -0.032925 0.169748 -0.728853 0.093163 -0.678302 111 111 111
0.004122 -0.032739 0.169769 -0.731560 0.120500 -0.671044 111 111 111
0.004132 -0.032555 0.169794 -0.719097 0.143571 -0.679917 110 110 110
0.004144 -0.032370 0.169823 -0.699266 0.166790 -0.695132 111 111 111
0.004158 -0.032187 0.169857 -0.679086 0.172736 -0.713445 111 111 111
0.004173 -0.032003 0.169892 -0.679126 0.184257 -0.710518 113 113 113
0.004189 -0.031819 0.169928 -0.692160 0.195197 -0.694847 114 114 114
0.004205 -0.031635 0.169965 -0.710726 0.202589 -0.673666 114 114 114
0.004221 -0.031452 0.170002 -0.727322 0.204159 -0.655226 114 114 114
0.004238 -0.031268 0.170040 -0.741150 0.180035 -0.646749 114 114 114
0.004250 -0.031083 0.170069 -0.752511 0.133662 -0.644873 114 114 114
0.004259 -0.030898 0.170090 -0.756378 0.083154 -0.648827 113 113 113
0.004263 -0.030711 0.170102 -0.758306 0.043591 -0.650440 115 115 115
0.004264 -0.030523 0.170106 -0.755936 0.013473 -0.654507 113 113 113
0.004263 -0.030335 0.170107 -0.755583 0.020173 -0.654742 114 114 114
0.004265 -0.030148 0.170114 -0.758696 0.046566 -0.649778 114 114 114
0.004270 -0.029962 0.170126 -0.761448 0.073015 -0.644101 114 114 114
0.004278 -0.029775 0.170144 -0.760769 0.076438 -0.644506 114 114 114
0.004283 -0.029589 0.170156 -0.760534 0.043418 -0.647845 116 116 116
0.004284 -0.029401 0.170160 -0.758490 -0.005929 -0.651657 117 117 117
0.004280 -0.029212 0.170152 -0.758568 -0.049824 -0.649686 117 117 117
0.004272 -0.029023 0.170139 -0.762649 -0.029265 -0.646150 117 117 117
0.004271 -0.028835 0.170138 -0.762939 0.051639 -0.644404 117 117 117
0.004279 -0.028648 0.170154 -0.759031 0.111772 -0.641388 117 117 117
0.004291 -0.028463 0.170179 -0.737451 0.121259 -0.664426 117 117 117
0.004302 -0.028277 0.170203 -0.709681 0.094605 -0.698142 116 116 116
0.004310 -0.028091 0.170219 -0.675846 0.092736 -0.731186 116 116 116
0.004316 -0.027904 0.170231 -0.648915 0.063022 -0.758246 117 117 117
0.004319 -0.027716 0.170238 -0.630538 0.059490 -0.773875 119 119 119
0.004324 -0.027529 0.170249 -0.624686 0.097716 -0.774738 120 120 120
0.004335 -0.027343 0.170270 -0.626896 0.133636 -0.767557 119 119 119
0.004349 -0.027158 0.170299 -0.640728 0.182174 -0.745842 119 119 119
0.004370 -0.026973 0.170342 -0.668412 0.239393 -0.704213 119 119 119
0.004396 -0.026790 0.170394 -0.699070 0.283116 -0.656618 119 119 119
0.004426 -0.026607 0.170454 -0.730415 0.315006 -0.606024 120 120 120
0.004455 -0.026424 0.170513 -0.743714 0.284255 -0.605052 121 121 121
0.004481 -0.026240 0.170564 -0.748956 0.223621 -0.623745 122 122 122
0.004500 -0.026054 0.170601 -0.746550 0.148598 -0.648523 122 122 122
0.004512 -0.025868 0.170624 -0.740461 0.095085 -0.665340 121 121 121
0.004520 -0.025681 0.170639 -0.735666 0.084387 -0.672067 121 121 121
0.004529 -0.025494 0.170656 -0.728407 0.088045 -0.679463 120 120 120
0.004538 -0.025307 0.170672 -0.721337 0.086009 -0.687223 120 120 120
0.004547 -0.025119 0.170688 -0.717858 0.071550 -0.692503 120 120 120
0.004551 -0.024931 0.170694 -0.710742 0.023749 -0.703052 119 119 119
0.004552 -0.024743 0.170693 -0.702974 -0.004519 -0.711201 118 118 118
0.004551 -0.024554 0.170689 -0.700859 0.005350 -0.713280 117 117 117
0.004553 -0.024366 0.170691 -0.704591 0.049365 -0.707894 117 117 117
0.004560 -0.024178 0.170702 -0.712353 0.091763 -0.695797 118 118 118
0.004572 -0.023991 0.170724 -0.725268 0.121233 -0.677708 119 119 119
0.004584 -0.023804 0.170746 -0.742143 0.111778 -0.660855 120 120 120
0.004595 -0.023617 0.170763 -0.758429 0.092356 -0.645179 120 120 120
0.004603 -0.023429 0.170778 -0.769302 0.084134 -0.633321 120 120 120
0.004612 -0.023242 0.170792 -0.770469 0.078276 -0.632653 120 120 120
0.004620 -0.023054 0.170804 -0.759759 0.077608 -0.645557 120 120 120
0.004627 -0.022866 0.170816 -0.742030 0.069424 -0.666762 119 119 119
0.004633 -0.022678 0.170824 -0.722672 0.051447 -0.689274 118 118 118
0.004637 -0.022490 0.170829 -0.707697 0.026394 -0.706023 117 117 117
0.004639 -0.022301 0.170829 -0.700604 0.009750 -0.713483 117 117 117
0.004641 -0.022112 0.170828 -0.700678 0.008064 -0.713432 119 119 119
0.004643 -0.021924 0.170827 -0.705455 0.004264 -0.708742 121 121 121
0.004643 -0.021735 0.170824 -0.714993 -0.013749 -0.698997 122 122 122
0.004643 -0.021546 0.170818 -0.715893 -0.015520 -0.698038 124 124 124
0.004642 -0.021357 0.170812 -0.711116 0.010999 -0.702989 125 125 125
0.004645 -0.021168 0.170813 -0.703581 0.057164 -0.708312 124 124 124
0.004653 -0.020980 0.170824 -0.697520 0.091350 -0.710718 124 124 124
0.004663 -0.020792 0.170840 -0.697543 0.089360 -0.710949 125 125 125
0.004673 -0.020605 0.170855 -0.698087 0.085402 -0.710902 127 127 127
0.004681 -0.020417 0.170867 -0.703107 0.048782 -0.709409 128 128 128
0.004685 -0.020228 0.170870 -0.709951 0.011519 -0.704157 128 128 128
0.004687 -0.020039 0.170868 -0.718625 -0.002845 -0.695392 129 129 129
0.004688 -0.019850 0.170865 -0.729820 0.006980 -0.683603 128 128 128
0.004692 -0.019662 0.170867 -0.740915 0.016024 -0.671408 128 128 128
0.004696 -0.019473 0.170868 -0.744849 0.018627 -0.666973 129 129 129
0.004699 -0.019284 0.170870 -0.738259 0.019205 -0.674244 129 129 129
0.004702 -0.019096 0.170870 -0.720551 0.024735 -0.692960 130 130 130
0.004706 -0.018907 0.170872 -0.697276 0.038336 -0.715777 130 130 130
0.004711 -0.018718 0.170876 -0.675051 0.072243 -0.734226 130 130 130
0.004721 -0.018530 0.170889 -0.667856 0.121904 -0.734239 130 130 130
0.004738 -0.018343 0.170918 -0.661724 0.193666 -0.724303 130 130 130
0.004762 -0.018156 0.170960 -0.673721 0.245962 -0.696852 130 130 130
0.004789 -0.017969 0.171009 -0.698557 0.252577 -0.669495 129 129 129
0.004814 -0.017782 0.171053 -0.724590 0.214257 -0.655029 128 128 128
0.004832 -0.017594 0.171084 -0.732435 0.127767 -0.668741 128 128 128
0.004842 -0.017406 0.171098 -0.733654 0.034700 -0.678636 129 129 129
0.004843 -0.017217 0.171092 -0.720148 -0.055753 -0.691577 129 129 129
0.004837 -0.017027 0.171072 -0.702554 -0.118723 -0.701657 129 129 129
0.004825 -0.016837 0.171043 -0.692655 -0.153942 -0.704650 130 130 130
0.004812 -0.016646 0.171009 -0.701787 -0.150212 -0.696370 131 131 131
0.004802 -0.016456 0.170981 -0.722448 -0.110906 -0.682472 130 130 130
0.004796 -0.016267 0.170962 -0.742425 -0.039361 -0.668772 129 129 129
0.004799 -0.016078 0.170960 -0.756467 0.025403 -0.653539 131 131 131
0.004805 -0.015889 0.170965 -0.760369 0.057225 -0.646965 130 130 130
0.004813 -0.015700 0.170974 -0.757481 0.062128 -0.649894 129 129 129
0.004820 -0.015512 0.170980 -0.750627 0.052338 -0.658650 131 131 131
0.004826 -0.015323 0.170985 -0.743623 0.056881 -0.666175 131 131 131
0.004833 -0.015134 0.170992 -0.740704 0.071752 -0.667989 131 131 131
0.004845 -0.014945 0.171008 -0.736517 0.121344 -0.665446 132 132 132
0.004862 -0.014757 0.171036 -0.736459 0.171571 -0.654364 132 132 132
0.004884 -0.014569 0.171073 -0.745936 0.190915 -0.638068 131 131 131
0.004905 -0.014381 0.171109 -0.764277 0.161724 -0.624280 131 131 131
0.004921 -0.014192 0.171134 -0.784160 0.104389 -0.611715 131 131 131
0.004930 -0.014003 0.171144 -0.789186 0.046781 -0.612370 131 131 131
0.004934 -0.013814 0.171145 -0.791098 0.001173 -0.611688 131 131 131
0.004936 -0.013625 0.171139 -0.771868 -0.003762 -0.635772 131 131 131
0.004936 -0.013436 0.171133 -0.747856 0.008748 -0.663803 131 131 131
0.004939 -0.013246 0.171130 -0.723239 0.042439 -0.689292 131 131 131
0.004946 -0.013057 0.171136 -0.705089 0.076803 -0.704948 130 130 130
0.004956 -0.012868 0.171147 -0.699145 0.094426 -0.708718 128 128 128
0.004968 -0.012679 0.171164 -0.689637 0.113757 -0.715164 129 129 129
0.004982 -0.012490 0.171184 -0.679318 0.102779 -0.726611 129 129 129
0.004993 -0.012301 0.171199 -0.669452 0.061315 -0.740321 130 130 130
0.005001 -0.012112 0.171206 -0.663500 0.012332 -0.748075 130 130 130
0.005002 -0.011922 0.171200 -0.640759 -0.016915 -0.767556 131 131 131
0.005002 -0.011733 0.171192 -0.625395 -0.017282 -0.780117 130 130 130
0.005003 -0.011543 0.171185 -0.620636 0.029999 -0.783525 131 131 131
0.005011 -0.011354 0.171193 -0.620758 0.096444 -0.778048 132 132 132
0.005028 -0.011165 0.171218 -0.641407 0.160214 -0.750286 133 133 133
0.005049 -0.010976 0.171253 -0.679396 0.169971 -0.713814 132 132 132
0.005067 -0.010787 0.171282 -0.722125 0.126986 -0.680008 131 131 131
0.005080 -0.010597 0.171299 -0.750540 0.076657 -0.656364 131 131 131
0.005084 -0.010408 0.171299 -0.772673 -0.014037 -0.634649 132 132 132
0.005081 -0.010218 0.171284 -0.778733 -0.073670 -0.623015 129 129 129
0.005075 -0.010028 0.171264 -0.770883 -0.072631 -0.632822 130 130 130
0.005071 -0.009839 0.171247 -0.761478 -0.044242 -0.646679 130 130 130
0.005070 -0.009649 0.171236 -0.751420 -0.010839 -0.659735 131 131 131
0.005072 -0.009460 0.171232 -0.744259 0.000502 -0.667891 131 131 131
0.005074 -0.009270 0.171227 -0.739048 -0.012651 -0.673534 133 133 133
0.005075 -0.009081 0.171220 -0.736345 -0.039092 -0.675476 132 132 132
0.005073 -0.008891 0.171206 -0.732560 -0.062576 -0.677820 133 133 133
0.005069 -0.008702 0.171190 -0.727597 -0.052989 -0.683956 135 135 135
0.005068 -0.008512 0.171180 -0.721847 -0.009721 -0.691984 135 135 135
0.005072 -0.008323 0.171180 -0.711982 0.058072 -0.699792 134 134 134
0.005084 -0.008133 0.171194 -0.707664 0.113465 -0.697379 134 134 134
0.005099 -0.007943 0.171216 -0.697070 0.153262 -0.700431 132 132 132
0.005117 -0.007753 0.171245 -0.691760 0.176374 -0.700258 132 132 132
0.005137 -0.007563 0.171276 -0.694985 0.174950 -0.697416 132 132 132
0.005155 -0.007373 0.171304 -0.703692 0.155759 -0.693222 132 132 132
0.005171 -0.007183 0.171327 -0.714048 0.126429 -0.688586 131 131 131
0.005183 -0.006993 0.171344 -0.723063 0.068358 -0.687392 131 131 131
0.005189 -0.006804 0.171347 -0.726775 0.000208 -0.686876 132 132 132
0.005188 -0.006614 0.171336 -0.726297 -0.073897 -0.683397 132 132 132
0.005180 -0.006424 0.171312 -0.724223 -0.114672 -0.679965 134 134 134
0.005172 -0.006235 0.171287 -0.723698 -0.089986 -0.684225 133 133 133
0.005169 -0.006045 0.171272 -0.728296 -0.027740 -0.684701 134 134 134
0.005172 -0.005856 0.171270 -0.729859 0.033069 -0.682797 134 134 134
0.005181 -0.005666 0.171280 -0.736517 0.083793 -0.671209 134 134 134
0.005194 -0.005475 0.171296 -0.744622 0.104391 -0.659272 134 134 134
0.005206 -0.005285 0.171314 -0.752071 0.106150 -0.650478 134 134 134
0.005219 -0.005095 0.171331 -0.759368 0.095580 -0.643603 134 134 134
0.005230 -0.004905 0.171344 -0.765040 0.082498 -0.638676 134 134 134
0.005240 -0.004714 0.171357 -0.768796 0.071232 -0.635515 134 134 134
0.005249 -0.004524 0.171367 -0.768240 0.053657 -0.637910 134 134 134
0.005257 -0.004334 0.171373 -0.765822 0.045269 -0.641457 134 134 134
0.005263 -0.004144 0.171379 -0.763811 0.039924 -0.644204 134 134 134
0.005269 -0.003954 0.171382 -0.766094 0.034382 -0.641808 133 133 133
0.005274 -0.003763 0.171384 -0.769094 0.026414 -0.638590 133 133 133
0.005279 -0.003573 0.171386 -0.776042 0.028094 -0.630056 132 132 132
0.005284 -0.003383 0.171388 -0.779360 0.039598 -0.625324 131 131 131
0.005291 -0.003193 0.171394 -0.771037 0.044308 -0.635247 133 133 133
0.005299 -0.003002 0.171402 -0.758885 0.040950 -0.649936 133 133 133
0.005306 -0.002812 0.171408 -0.748106 0.028269 -0.662977 133 133 133
0.005312 -0.002622 0.171411 -0.745996 0.020711 -0.665628 133 133 133
0.005316 -0.002431 0.171413 -0.747507 0.033218 -0.663423 133 133 133
0.005321 -0.002241 0.171414 -0.764130 0.019575 -0.644765 132 132 132
0.005326 -0.002051 0.171417 -0.781604 0.024602 -0.623290 132 132 132
0.005331 -0.001860 0.171419 -0.794887 0.027210 -0.606146 131 131 131
0.005335 -0.001670 0.171420 -0.793228 0.011254 -0.608821 130 130 130
0.005338 -0.001480 0.171418 -0.783994 0.002011 -0.620765 129 129 129
0.005341 -0.001289 0.171417 -0.771992 0.012047 -0.635519 127 127 127
0.005346 -0.001099 0.171418 -0.763365 0.033671 -0.645089 127 127 127
0.005353 -0.000908 0.171424 -0.760020 0.055310 -0.647542 125 125 125
0.005361 -0.000717 0.171433 -0.760437 0.069826 -0.645647 124 124 124
0.005371 -0.000526 0.171446 -0.765043 0.080588 -0.638916 125 125 125
0.005381 -0.000335 0.171460 -0.770390 0.087003 -0.631609 124 124 124
0.005392 -0.000144 0.171475 -0.774181 0.088072 -0.626807 125 125 125
0.005403 0.000047 0.171489 -0.775685 0.077265 -0.626373 126 126 126
0.005412 0.000238 0.171500 -0.779406 0.055507 -0.624055 127 127 127
0.005418 0.000429 0.171506 -0.786390 0.030119 -0.616995 127 127 127
0.005421 0.000620 0.171505 -0.795030 0.006738 -0.606533 126 126 126
0.005422 0.000810 0.171501 -0.799199 -0.009520 -0.600991 126 126 126
0.005422 0.001000 0.171493 -0.804856 -0.018175 -0.593191 125 125 125
0.005423 0.001191 0.171488 -0.806654 -0.000410 -0.591024 125 125 125
0.005426 0.001381 0.171487 -0.805636 0.022914 -0.591968 125 125 125
0.005431 0.001572 0.171490 -0.803989 0.047258 -0.592764 126 126 126
0.005439 0.001763 0.171500 -0.804817 0.069787 -0.589405 127 127 127
0.005449 0.001955 0.171515 -0.808029 0.086320 -0.582785 127 127 127
0.005461 0.002147 0.171532 -0.811901 0.095255 -0.575971 128 128 128
0.005473 0.002338 0.171549 -0.810494 0.086807 -0.579279 130 130 130
0.005483 0.002530 0.171564 -0.802813 0.068775 -0.592251 131 131 131
0.005491 0.002722 0.171574 -0.791993 0.049661 -0.608507 132 132 132
0.005497 0.002913 0.171581 -0.781031 0.031232 -0.623711 132 132 132
0.005502 0.003104 0.171584 -0.770909 0.033530 -0.636062 131 131 131
0.005508 0.003296 0.171591 -0.760337 0.049189 -0.647663 131 131 131
0.005515 0.003487 0.171600 -0.753920 0.078458 -0.652264 131 131 131
0.005526 0.003679 0.171616 -0.746281 0.090686 -0.659424 132 132 132
0.005536 0.003871 0.171631 -0.746663 0.092534 -0.658735 133 133 133
0.005547 0.004063 0.171647 -0.750509 0.072953 -0.656821 132 132 132
0.005553 0.004255 0.171655 -0.756493 0.026131 -0.653480 132 132 132
0.005555 0.004446 0.171652 -0.759563 -0.026822 -0.649881 133 133 133
0.005552 0.004636 0.171641 -0.760178 -0.061836 -0.646766 133 133 133
0.005546 0.004826 0.171625 -0.754913 -0.081982 -0.650681 132 132 132
0.005539 0.005016 0.171605 -0.747912 -0.080976 -0.658841 131 131 131
0.005533 0.005206 0.171589 -0.740848 -0.058693 -0.669103 131 131 131
0.005530 0.005396 0.171577 -0.736902 -0.033940 -0.675146 130 130 130
0.005530 0.005587 0.171572 -0.729332 -0.004722 -0.684143 130 130 130
0.005531 0.005778 0.171572 -0.722825 0.019674 -0.690751 130 130 130
0.005536 0.005970 0.171577 -0.718984 0.052835 -0.693016 130 130 130
0.005544 0.006162 0.171589 -0.718244 0.085800 -0.690481 131 131 131
0.005556 0.006355 0.171608 -0.722780 0.107312 -0.682696 130 130 130
0.005569 0.006548 0.171630 -0.731652 0.121171 -0.670823 129 129 129
0.005583 0.006742 0.171656 -0.742869 0.138262 -0.655003 130 130 130
0.005600 0.006936 0.171686 -0.754976 0.152487 -0.637777 129 129 129
0.005617 0.007130 0.171717 -0.769357 0.149526 -0.621073 128 128 128
0.005633 0.007324 0.171746 -0.789933 0.126269 -0.600052 127 127 127
0.005644 0.007517 0.171764 -0.805787 0.066138 -0.588501 127 127 127
0.005647 0.007709 0.171767 -0.815556 0.004272 -0.578663 127 127 127
0.005645 0.007900 0.171761 -0.817362 -0.028234 -0.575432 127 127 127
0.005642 0.008091 0.171752 -0.814855 -0.009200 -0.579592 127 127 127
0.005644 0.008282 0.171752 -0.805074 0.036453 -0.592053 128 128 128
0.005650 0.008475 0.171762 -0.790482 0.080368 -0.607189 127 127 127
0.005661 0.008668 0.171781 -0.771404 0.095109 -0.629197 128 128 128
0.005672 0.008862 0.171801 -0.758016 0.091782 -0.645746 129 129 129
0.005682 0.009055 0.171819 -0.743443 0.083077 -0.663620 129 129 129
0.005691 0.009249 0.171835 -0.727555 0.083218 -0.680984 129 129 129
0.005700 0.009442 0.171852 -0.714212 0.094120 -0.693572 129 129 129
0.005711 0.009636 0.171870 -0.711195 0.108977 -0.694496 129 129 129
0.005721 0.009830 0.171890 -0.716242 0.104837 -0.689932 129 129 129
0.005732 0.010024 0.171910 -0.735579 0.090058 -0.671426 127 127 127
0.005741 0.010218 0.171927 -0.761593 0.068126 -0.644465 126 126 126
0.005748 0.010411 0.171939 -0.784836 0.051764 -0.617538 125 125 125
0.005752 0.010604 0.171946 -0.786408 0.024378 -0.617226 123 123 123
0.005754 0.010796 0.171950 -0.777846 0.002652 -0.628450 122 122 122
0.005754 0.010989 0.171950 -0.764440 -0.011425 -0.644593 120 120 120
0.005753 0.011180 0.171947 -0.751104 -0.025562 -0.659689 122 122 122
0.005750 0.011372 0.171940 -0.741222 -0.025439 -0.670777 122 122 122
0.005748 0.011564 0.171936 -0.735644 -0.014847 -0.677206 122 122 122
0.005746 0.011756 0.171931 -0.726069 -0.016983 -0.687412 123 123 123
0.005744 0.011948 0.171928 -0.716149 -0.016272 -0.697757 123 123 123
0.005743 0.012140 0.171925 -0.702854 -0.029809 -0.710709 124 124 124
0.005742 0.012332 0.171924 -0.700117 -0.032391 -0.713293 123 123 123
0.004052 -0.035845 0.169051 -0.708918 0.392877 -0.585733 108 108 108
0.004088 -0.035669 0.169134 -0.702056 0.378397 -0.603268 108 108 108
0.004119 -0.035491 0.169206 -0.703820 0.289526 -0.648701 107 107 107
0.004138 -0.035310 0.169253 -0.705500 0.141651 -0.694409 107 107 107
0.004142 -0.035125 0.169269 -0.704316 0.017246 -0.709678 107 107 107
0.004135 -0.034937 0.169263 -0.692389 -0.063300 -0.718743 108 108 108
0.004125 -0.034747 0.169250 -0.687078 -0.037943 -0.725593 107 107 107
0.004122 -0.034560 0.169253 -0.685761 0.076420 -0.723804 107 107 107
0.004134 -0.034377 0.169284 -0.673363 0.231437 -0.702153 108 108 108
0.004159 -0.034197 0.169341 -0.654108 0.333532 -0.678895 108 108 108
0.004188 -0.034018 0.169408 -0.636991 0.346546 -0.688584 108 108 108
0.004216 -0.033838 0.169472 -0.639193 0.294095 -0.710592 109 109 109
0.004236 -0.033657 0.169519 -0.655181 0.209363 -0.725882 110 110 110
0.004248 -0.033473 0.169549 -0.676724 0.131313 -0.724432 109 109 109
0.004254 -0.033287 0.169566 -0.687998 0.091826 -0.719879 108 108 108
0.004258 -0.033101 0.169580 -0.707039 0.074693 -0.703219 108 108 108
0.004262 -0.032915 0.169594 -0.717511 0.086942 -0.691100 108 108 108
0.004270 -0.032730 0.169616 -0.716945 0.136894 -0.683556 108 108 108
0.004282 -0.032546 0.169646 -0.701797 0.157103 -0.694838 108 108 108
0.004296 -0.032363 0.169679 -0.696051 0.174056 -0.696575 108 108 108
0.004311 -0.032179 0.169714 -0.700677 0.177017 -0.691171 109 109 109
0.004325 -0.031995 0.169746 -0.716842 0.167782 -0.676748 109 109 109
0.004337 -0.031811 0.169776 -0.730531 0.147097 -0.666848 109 109 109
0.004349 -0.031626 0.169805 -0.750169 0.152271 -0.643475 109 109 109
0.004363 -0.031442 0.169836 -0.765035 0.167579 -0.621802 109 109 109
0.004378 -0.031258 0.169869 -0.774892 0.161675 -0.611067 110 110 110
0.004390 -0.031073 0.169897 -0.777369 0.125693 -0.616360 111 111 111
0.004398 -0.030887 0.169918 -0.773004 0.087853 -0.628289 112 112 112
0.004404 -0.030701 0.169933 -0.771117 0.050108 -0.634718 113 113 113
0.004406 -0.030514 0.169939 -0.759268 0.022836 -0.650377 114 114 114
0.004406 -0.030326 0.169942 -0.757412 0.019027 -0.652660 114 114 114
0.004408 -0.030139 0.169948 -0.759932 0.040511 -0.648739 114 114 114
0.004411 -0.029952 0.169958 -0.768678 0.066285 -0.636192 114 114 114
0.004418 -0.029766 0.169974 -0.777553 0.073201 -0.624543 116 116 116
0.004423 -0.029579 0.169987 -0.783048 0.045639 -0.620284 117 117 117
0.004425 -0.029392 0.169992 -0.780528 -0.002186 -0.625116 118 118 118
0.004421 -0.029203 0.169986 -0.764993 -0.034276 -0.643126 119 119 119
0.004415 -0.029014 0.169975 -0.747218 -0.008874 -0.664520 118 118 118
0.004415 -0.028826 0.169975 -0.731831 0.069712 -0.677911 118 118 118
0.004424 -0.028640 0.169994 -0.723999 0.132791 -0.676899 119 119 119
0.004438 -0.028455 0.170023 -0.704633 0.158452 -0.691654 119 119 119
0.004453 -0.028270 0.170054 -0.685480 0.139792 -0.714545 118 118 118
0.004464 -0.028085 0.170078 -0.665854 0.107765 -0.738258 117 117 117
0.004474 -0.027899 0.170098 -0.645714 0.073020 -0.760080 118 118 118
0.004479 -0.027712 0.170109 -0.634716 0.072661 -0.769322 119 119 119
0.004485 -0.027525 0.170122 -0.633125 0.091636 -0.768606 119 119 119
0.004495 -0.027339 0.170141 -0.638478 0.110291 -0.761696 118 118 118
0.004506 -0.027152 0.170164 -0.660381 0.129201 -0.739732 117 117 117
0.004521 -0.026967 0.170193 -0.696191 0.170335 -0.697355 116 116 116
0.004540 -0.026782 0.170232 -0.733755 0.216691 -0.643932 117 117 117
0.004564 -0.026599 0.170280 -0.763349 0.253391 -0.594216 117 117 117
0.004591 -0.026415 0.170332 -0.787551 0.267628 -0.555102 118 118 118
0.004615 -0.026231 0.170382 -0.795423 0.229450 -0.560941 119 119 119
0.004636 -0.026046 0.170422 -0.796515 0.168215 -0.580748 119 119 119
0.004650 -0.025860 0.170449 -0.792056 0.112763 -0.599943 119 119 119
0.004660 -0.025673 0.170467 -0.785907 0.095587 -0.610913 119 119 119
0.004670 -0.025486 0.170486 -0.777157 0.100807 -0.621181 120 120 120
0.004681 -0.025300 0.170506 -0.768617 0.098896 -0.632019 120 120 120
0.004691 -0.025113 0.170525 -0.758474 0.073386 -0.647559 120 120 120
0.004697 -0.024925 0.170535 -0.754981 0.038061 -0.654641 121 121 121
0.004699 -0.024737 0.170537 -0.743753 0.005541 -0.668431 122 122 122
0.004700 -0.024548 0.170536 -0.736856 0.004842 -0.676032 122 122 122
0.004701 -0.024360 0.170537 -0.737116 0.035978 -0.674808 122 122 122
0.004707 -0.024172 0.170545 -0.743045 0.084194 -0.663924 122 122 122
0.004717 -0.023985 0.170563 -0.757799 0.106511 -0.643736 123 123 123
0.004727 -0.023798 0.170581 -0.762104 0.102161 -0.639344 123 123 123
0.004736 -0.023611 0.170594 -0.772165 0.084128 -0.629828 124 124 124
0.004743 -0.023423 0.170606 -0.776655 0.080881 -0.624712 124 124 124
0.004752 -0.023235 0.170621 -0.771609 0.085731 -0.630293 124 124 124
0.004761 -0.023048 0.170636 -0.761420 0.087197 -0.642368 123 123 123
0.004771 -0.022861 0.170653 -0.746145 0.082509 -0.660651 123 123 123
0.004781 -0.022673 0.170668 -0.729702 0.061577 -0.680987 123 123 123
0.004787 -0.022485 0.170677 -0.723505 0.039000 -0.689217 122 122 122
0.004791 -0.022297 0.170681 -0.713356 0.015171 -0.700638 123 123 123
0.004793 -0.022108 0.170680 -0.709691 0.004762 -0.704497 123 123 123
0.004794 -0.021919 0.170679 -0.709005 -0.002459 -0.705199 124 124 124
0.004794 -0.021731 0.170675 -0.702267 -0.008206 -0.711867 125 125 125
0.004794 -0.021542 0.170669 -0.687129 0.001045 -0.726535 126 126 126
0.004795 -0.021353 0.170667 -0.666145 0.035538 -0.744975 125 125 125
0.004800 -0.021165 0.170672 -0.646731 0.077933 -0.758726 124 124 124
0.004808 -0.020977 0.170685 -0.635928 0.101763 -0.765010 125 125 125
0.004819 -0.020789 0.170701 -0.636654 0.098340 -0.764854 125 125 125
0.004828 -0.020601 0.170715 -0.643855 0.076767 -0.761286 125 125 125
0.004836 -0.020413 0.170725 -0.650365 0.042078 -0.758456 123 123 123
0.004839 -0.020225 0.170726 -0.661073 -0.000030 -0.750321 124 124 124
0.004839 -0.020036 0.170722 -0.675569 -0.020714 -0.737006 122 122 122
0.004839 -0.019847 0.170716 -0.687309 -0.013847 -0.726233 122 122 122
0.004841 -0.019658 0.170713 -0.698825 -0.002468 -0.715289 126 126 126
0.004843 -0.019469 0.170712 -0.704902 0.012053 -0.709202 128 128 128
0.004846 -0.019281 0.170713 -0.702554 0.028073 -0.711077 128 128 128
0.004851 -0.019092 0.170717 -0.692394 0.046146 -0.720043 129 129 129
0.004858 -0.018904 0.170725 -0.680062 0.060915 -0.730620 129 129 129
0.004866 -0.018716 0.170735 -0.670008 0.085396 -0.737426 130 130 130
0.004877 -0.018528 0.170752 -0.669904 0.119035 -0.732843 131 131 131
0.004893 -0.018340 0.170777 -0.675375 0.164098 -0.718985 132 132 132
0.004913 -0.018153 0.170812 -0.693916 0.206034 -0.689950 131 131 131
0.004936 -0.017966 0.170852 -0.718871 0.219002 -0.659744 130 130 130
0.004958 -0.017779 0.170890 -0.741501 0.198634 -0.640875 130 130 130
0.004976 -0.017591 0.170920 -0.747383 0.134513 -0.650635 130 130 130
0.004988 -0.017403 0.170937 -0.739524 0.047621 -0.671443 130 130 130
0.004991 -0.017214 0.170937 -0.733434 -0.027976 -0.679185 130 130 130
0.004988 -0.017025 0.170924 -0.708968 -0.098391 -0.698343 130 130 130
0.004978 -0.016835 0.170898 -0.680816 -0.140857 -0.718783 131 131 131
0.004965 -0.016644 0.170864 -0.670816 -0.154849 -0.725278 132 132 132
0.004954 -0.016454 0.170833 -0.673877 -0.126429 -0.727946 131 131 131
0.004946 -0.016265 0.170810 -0.683176 -0.057354 -0.727998 130 130 130
0.004946 -0.016076 0.170804 -0.693768 0.008931 -0.720143 129 129 129
0.004951 -0.015887 0.170807 -0.697741 0.051663 -0.714485 129 129 129
0.004960 -0.015698 0.170817 -0.697631 0.066460 -0.713368 128 128 128
0.004968 -0.015510 0.170825 -0.693632 0.059454 -0.717872 128 128 128
0.004975 -0.015321 0.170832 -0.689149 0.061582 -0.721998 127 127 127
0.004983 -0.015132 0.170841 -0.688030 0.074224 -0.721877 127 127 127
0.004994 -0.014944 0.170857 -0.688837 0.112368 -0.716155 126 126 126
0.005010 -0.014756 0.170881 -0.699510 0.145856 -0.699580 128 128 128
0.005029 -0.014567 0.170911 -0.723471 0.154090 -0.672939 128 128 128
0.005046 -0.014379 0.170939 -0.754158 0.126065 -0.644479 127 127 127
0.005059 -0.014190 0.170957 -0.776004 0.090023 -0.624270 128 128 128
0.005066 -0.014002 0.170963 -0.791843 0.038299 -0.609523 128 128 128
0.005070 -0.013812 0.170964 -0.786824 0.026924 -0.616590 129 129 129
0.005074 -0.013623 0.170965 -0.766979 0.037028 -0.640603 129 129 129
0.005080 -0.013434 0.170967 -0.739778 0.056886 -0.670442 129 129 129
0.005087 -0.013245 0.170974 -0.712667 0.081905 -0.696705 130 130 130
0.005097 -0.013056 0.170986 -0.696978 0.083493 -0.712215 130 130 130
0.005109 -0.012868 0.171002 -0.688141 0.100544 -0.718577 132 132 132
0.005121 -0.012679 0.171019 -0.687445 0.111304 -0.717656 132 132 132
0.005135 -0.012490 0.171039 -0.695022 0.107946 -0.710839 133 133 133
0.005147 -0.012301 0.171055 -0.698290 0.073958 -0.711984 132 132 132
0.005155 -0.012112 0.171063 -0.696276 0.035563 -0.716893 133 133 133
0.005159 -0.011922 0.171063 -0.686253 0.001216 -0.727362 133 133 133
0.005162 -0.011733 0.171061 -0.666507 -0.002847 -0.745494 133 133 133
0.005165 -0.011544 0.171059 -0.645508 0.034170 -0.762989 134 134 134
0.005173 -0.011354 0.171066 -0.644434 0.079040 -0.760564 134 134 134
0.005186 -0.011165 0.171083 -0.660886 0.115487 -0.741547 134 134 134
0.005201 -0.010976 0.171106 -0.696046 0.114887 -0.708746 134 134 134
0.005213 -0.010787 0.171123 -0.734383 0.075787 -0.674491 134 134 134
0.005221 -0.010597 0.171130 -0.759904 0.038347 -0.648904 134 134 134
0.005222 -0.010408 0.171124 -0.777212 -0.030092 -0.628519 134 134 134
0.005219 -0.010218 0.171109 -0.775381 -0.061890 -0.628454 133 133 133
0.005215 -0.010029 0.171092 -0.760838 -0.047330 -0.647213 131 131 131
0.005214 -0.009839 0.171080 -0.743222 -0.014550 -0.668886 130 130 130
0.005215 -0.009650 0.171074 -0.724716 0.015991 -0.688862 128 128 128
0.005219 -0.009460 0.171074 -0.711065 0.020261 -0.702834 129 129 129
0.005222 -0.009271 0.171072 -0.702384 -0.002038 -0.711795 130 130 130
0.005223 -0.009081 0.171065 -0.698957 -0.036960 -0.714208 130 130 130
0.005221 -0.008892 0.171052 -0.697548 -0.063943 -0.713680 130 130 130
0.005218 -0.008703 0.171036 -0.699339 -0.056077 -0.712587 131 131 131
0.005217 -0.008513 0.171026 -0.703914 -0.013336 -0.710160 130 130 130
0.005222 -0.008324 0.171027 -0.706425 0.045756 -0.706307 129 129 129
0.005233 -0.008134 0.171042 -0.708849 0.110326 -0.696679 127 127 127
0.005249 -0.007944 0.171065 -0.710735 0.148020 -0.687710 127 127 127
0.005267 -0.007755 0.171093 -0.716237 0.171180 -0.676537 130 130 130
0.005286 -0.007565 0.171123 -0.722695 0.164459 -0.671316 130 130 130
0.005303 -0.007375 0.171148 -0.731643 0.143084 -0.666503 132 132 132
0.005317 -0.007185 0.171169 -0.739993 0.113847 -0.662910 132 132 132
0.005329 -0.006995 0.171184 -0.745630 0.060774 -0.663583 132 132 132
0.005334 -0.006805 0.171186 -0.747912 0.000218 -0.663798 133 133 133
0.005333 -0.006616 0.171176 -0.743503 -0.068937 -0.665170 135 135 135
0.005327 -0.006426 0.171153 -0.734519 -0.104937 -0.670425 135 135 135
0.005319 -0.006237 0.171130 -0.730358 -0.085653 -0.677673 136 136 136
0.005316 -0.006047 0.171115 -0.733489 -0.033628 -0.678868 135 135 135
0.005319 -0.005858 0.171111 -0.735367 0.021217 -0.677337 135 135 135
0.005327 -0.005668 0.171119 -0.741459 0.070215 -0.667315 134 134 134
0.005338 -0.005478 0.171133 -0.748248 0.093242 -0.656835 134 134 134
0.005350 -0.005288 0.171148 -0.755028 0.096401 -0.648568 134 134 134
0.005361 -0.005098 0.171164 -0.765390 0.087551 -0.637584 135 135 135
0.005371 -0.004907 0.171175 -0.772436 0.068476 -0.631390 136 136 136
0.005380 -0.004717 0.171185 -0.783674 0.065906 -0.617666 135 135 135
0.005389 -0.004527 0.171193 -0.787215 0.055856 -0.614144 135 135 135
0.005396 -0.004337 0.171201 -0.785091 0.050925 -0.617284 134 134 134
0.005404 -0.004147 0.171207 -0.778854 0.045449 -0.625557 133 133 133
0.005410 -0.003957 0.171212 -0.772294 0.033289 -0.634393 133 133 133
0.005415 -0.003767 0.171213 -0.769751 0.024185 -0.637885 133 133 133
0.005419 -0.003577 0.171213 -0.768460 0.025524 -0.639389 130 130 130
0.005424 -0.003387 0.171215 -0.766960 0.040875 -0.640392 128 128 128
0.005432 -0.003196 0.171223 -0.765358 0.059172 -0.640880 129 129 129
0.005441 -0.003006 0.171233 -0.763006 0.059607 -0.643638 128 128 128
0.005449 -0.002816 0.171243 -0.763314 0.041234 -0.644711 128 128 128
0.005455 -0.002625 0.171246 -0.764359 0.025820 -0.644274 129 129 129
0.005459 -0.002435 0.171245 -0.773399 0.011377 -0.633817 129 129 129
0.005460 -0.002245 0.171240 -0.789159 0.006512 -0.614154 130 130 130
0.005462 -0.002055 0.171237 -0.804788 0.012948 -0.593422 131 131 131
0.005465 -0.001865 0.171235 -0.814622 0.018732 -0.579690 131 131 131
0.005470 -0.001675 0.171236 -0.807903 0.022823 -0.588873 130 130 130
0.005475 -0.001485 0.171238 -0.793079 0.027953 -0.608477 130 130 130
0.005481 -0.001294 0.171243 -0.775257 0.038402 -0.630478 129 129 129
0.005488 -0.001104 0.171250 -0.760941 0.048893 -0.646976 130 130 130
0.005495 -0.000913 0.171257 -0.755477 0.062223 -0.652214 130 130 130
0.005503 -0.000722 0.171266 -0.751148 0.065186 -0.656908 130 130 130
0.005512 -0.000531 0.171276 -0.753390 0.069086 -0.653935 130 130 130
0.005521 -0.000341 0.171288 -0.759677 0.073016 -0.646188 130 130 130
0.005531 -0.000150 0.171301 -0.767758 0.075295 -0.636301 131 131 131
0.005541 0.000041 0.171314 -0.776130 0.068704 -0.626819 132 132 132
0.005550 0.000232 0.171324 -0.783913 0.046869 -0.619099 132 132 132
0.005555 0.000423 0.171327 -0.789715 0.017771 -0.613217 132 132 132
0.005557 0.000613 0.171325 -0.793643 -0.008065 -0.608330 131 131 131
0.005557 0.000804 0.171318 -0.795773 -0.024640 -0.605093 132 132 132
0.005557 0.000994 0.171310 -0.796085 -0.020702 -0.604830 131 131 131
0.005558 0.001184 0.171305 -0.794430 0.002757 -0.607350 131 131 131
0.005561 0.001375 0.171306 -0.790904 0.027272 -0.611333 131 131 131
0.005567 0.001565 0.171311 -0.787867 0.046453 -0.614091 132 132 132
0.005575 0.001757 0.171320 -0.789391 0.059576 -0.610993 131 131 131
0.005584 0.001948 0.171332 -0.795691 0.070587 -0.601576 131 131 131
0.005594 0.002139 0.171346 -0.804073 0.083887 -0.588583 131 131 131
0.005605 0.002331 0.171362 -0.808468 0.095900 -0.580675 131 131 131
0.005616 0.002523 0.171378 -0.800343 0.091477 -0.592523 131 131 131
0.005627 0.002714 0.171393 -0.785606 0.077900 -0.613804 130 130 130
0.005635 0.002906 0.171405 -0.769122 0.058625 -0.636407 129 129 129
0.005642 0.003097 0.171413 -0.760255 0.066233 -0.646239 128 128 128
0.005650 0.003289 0.171423 -0.746787 0.070393 -0.661327 127 127 127
0.005659 0.003480 0.171435 -0.738878 0.081232 -0.668926 127 127 127
0.005670 0.003672 0.171451 -0.739019 0.088109 -0.667898 126 126 126
0.005680 0.003864 0.171466 -0.743416 0.082630 -0.663705 128 128 128
0.005690 0.004056 0.171481 -0.752561 0.066619 -0.655144 128 128 128
0.005696 0.004248 0.171487 -0.757970 0.020242 -0.651975 129 129 129
0.005697 0.004439 0.171485 -0.759655 -0.028601 -0.649697 130 130 130
0.005694 0.004629 0.171474 -0.759174 -0.057948 -0.648303 131 131 131
0.005690 0.004819 0.171460 -0.755284 -0.077370 -0.650814 131 131 131
0.005684 0.005009 0.171443 -0.746542 -0.071764 -0.661457 131 131 131
0.005680 0.005199 0.171430 -0.738287 -0.046605 -0.672874 131 131 131
0.005678 0.005390 0.171421 -0.729074 -0.023395 -0.684035 131 131 131
0.005679 0.005581 0.171420 -0.718943 0.002886 -0.695063 132 132 132
0.005682 0.005772 0.171421 -0.711882 0.027412 -0.701764 132 132 132
0.005687 0.005963 0.171427 -0.707305 0.060664 -0.704301 132 132 132
0.005695 0.006156 0.171439 -0.703554 0.085365 -0.705496 132 132 132
0.005706 0.006348 0.171456 -0.707240 0.095954 -0.700431 132 132 132
0.005716 0.006541 0.171473 -0.718492 0.098487 -0.688527 132 132 132
0.005728 0.006734 0.171493 -0.735880 0.107699 -0.668492 131 131 131
0.005741 0.006927 0.171516 -0.756753 0.118903 -0.642797 131 131 131
0.005755 0.007120 0.171541 -0.779001 0.116806 -0.616046 130 130 130
0.005767 0.007314 0.171562 -0.799674 0.092641 -0.593244 130 130 130
0.005776 0.007506 0.171575 -0.815025 0.050695 -0.577203 129 129 129
0.005778 0.007698 0.171577 -0.816971 -0.000833 -0.576678 128 128 128
0.005777 0.007889 0.171571 -0.811036 -0.021237 -0.584610 128 128 128
0.005776 0.008080 0.171567 -0.804282 0.009831 -0.594167 126 126 126
0.005780 0.008272 0.171572 -0.790696 0.055951 -0.609647 125 125 125
0.005788 0.008465 0.171586 -0.778754 0.094342 -0.620195 125 125 125
0.005800 0.008658 0.171607 -0.772707 0.113420 -0.624548 124 124 124
0.005812 0.008852 0.171629 -0.769112 0.110554 -0.629479 124 124 124
0.005824 0.009046 0.171650 -0.762409 0.106142 -0.638330 124 124 124
0.005835 0.009240 0.171671 -0.750506 0.107000 -0.652144 125 125 125
0.005847 0.009433 0.171693 -0.737140 0.110745 -0.666603 125 125 125
0.005859 0.009627 0.171715 -0.731062 0.106412 -0.673962 125 125 125
0.005869 0.009821 0.171734 -0.738404 0.092045 -0.668048 125 125 125
0.005877 0.010014 0.171747 -0.750502 0.055735 -0.658514 124 124 124
0.005881 0.010207 0.171755 -0.770817 0.029457 -0.636375 123 123 123
0.005884 0.010399 0.171759 -0.789419 0.020547 -0.613511 122 122 122
0.005887 0.010592 0.171764 -0.799297 0.027691 -0.600297 123 123 123
0.005890 0.010785 0.171770 -0.794314 0.024994 -0.606993 123 123 123
0.005893 0.010977 0.171775 -0.779300 0.017415 -0.626409 124 124 124
0.005896 0.011170 0.171780 -0.757638 0.001270 -0.652674 126 126 126
0.005896 0.011362 0.171780 -0.735459 -0.004956 -0.677551 127 127 127
0.005897 0.011554 0.171781 -0.716197 -0.006556 -0.697867 127 127 127
0.005897 0.011747 0.171781 -0.705847 -0.010458 -0.708287 126 126 126
0.005896 0.011939 0.171781 -0.702200 -0.011623 -0.711885 126 126 126
0.005896 0.012131 0.171780 -0.702853 -0.015401 -0.711168 125 125 125
0.004195 -0.035833 0.168889 -0.679085 0.398402 -0.616538 106 106 106
0.004231 -0.035657 0.168973 -0.695367 0.396618 -0.599298 106 106 106
0.004264 -0.035480 0.169047 -0.713879 0.308357 -0.628723 104 104 104
0.004284 -0.035300 0.169097 -0.729277 0.160334 -0.665168 104 104 104
0.004290 -0.035115 0.169117 -0.731478 0.033237 -0.681055 104 104 104
0.004285 -0.034927 0.169114 -0.721664 -0.051192 -0.690348 105 105 105
0.004276 -0.034738 0.169103 -0.711326 -0.028355 -0.702290 105 105 105
0.004273 -0.034551 0.169106 -0.707512 0.079427 -0.702223 105 105 105
0.004285 -0.034368 0.169137 -0.693827 0.229878 -0.682466 105 105 105
0.004310 -0.034188 0.169194 -0.677440 0.332800 -0.655987 106 106 106
0.004340 -0.034009 0.169263 -0.666735 0.352888 -0.656456 106 106 106
0.004370 -0.033830 0.169330 -0.670657 0.296603 -0.679887 108 108 108
0.004390 -0.033649 0.169378 -0.683260 0.198799 -0.702591 108 108 108
0.004401 -0.033465 0.169406 -0.695743 0.107879 -0.710144 109 109 109
0.004405 -0.033279 0.169419 -0.703482 0.065246 -0.707712 109 109 109
0.004406 -0.033092 0.169428 -0.714911 0.053157 -0.697192 109 109 109
0.004409 -0.032906 0.169439 -0.720201 0.080895 -0.689033 110 110 110
0.004418 -0.032721 0.169462 -0.719160 0.142390 -0.680099 110 110 110
0.004431 -0.032538 0.169494 -0.713503 0.170488 -0.679593 111 111 111
0.004445 -0.032354 0.169528 -0.715456 0.174158 -0.676603 111 111 111
0.004459 -0.032170 0.169560 -0.725195 0.163176 -0.668929 112 112 112
0.004470 -0.031986 0.169588 -0.735403 0.127985 -0.665434 113 113 113
0.004479 -0.031801 0.169610 -0.751299 0.110311 -0.650677 113 113 113
0.004488 -0.031615 0.169633 -0.765644 0.121426 -0.631700 113 113 113
0.004500 -0.031431 0.169660 -0.775039 0.147532 -0.614450 113 113 113
0.004514 -0.031247 0.169692 -0.781130 0.155494 -0.604696 114 114 114
0.004526 -0.031062 0.169721 -0.780345 0.131550 -0.611356 115 115 115
0.004537 -0.030877 0.169745 -0.773807 0.104035 -0.624819 115 115 115
0.004545 -0.030691 0.169765 -0.764187 0.063854 -0.641826 116 116 116
0.004548 -0.030505 0.169774 -0.761258 0.029881 -0.647760 115 115 115
0.004549 -0.030317 0.169778 -0.756516 0.018224 -0.653721 113 113 113
0.004549 -0.030130 0.169782 -0.759812 0.024163 -0.649694 112 112 112
0.004550 -0.029942 0.169786 -0.772847 0.041355 -0.633244 112 112 112
0.004554 -0.029756 0.169796 -0.787810 0.054039 -0.613543 112 112 112
0.004558 -0.029569 0.169806 -0.798424 0.040905 -0.600705 112 112 112
0.004561 -0.029382 0.169813 -0.794482 0.017198 -0.607043 112 112 112
0.004560 -0.029194 0.169813 -0.771507 0.011050 -0.636125 110 110 110
0.004559 -0.029006 0.169812 -0.738872 0.043313 -0.672452 109 109 109
0.004562 -0.028819 0.169820 -0.707211 0.109866 -0.698414 109 109 109
0.004573 -0.028633 0.169843 -0.694827 0.157744 -0.701664 111 111 111
0.004588 -0.028449 0.169875 -0.678655 0.186968 -0.710261 112 112 112
0.004605 -0.028264 0.169909 -0.668917 0.168150 -0.724068 114 114 114
0.004619 -0.028079 0.169938 -0.664961 0.135806 -0.734427 113 113 113
0.004630 -0.027893 0.169961 -0.659263 0.097791 -0.745526 116 116 116
0.004637 -0.027707 0.169976 -0.657454 0.078152 -0.749431 118 118 118
0.004644 -0.027520 0.169990 -0.657347 0.088775 -0.748340 119 119 119
0.004652 -0.027333 0.170006 -0.666124 0.102117 -0.738817 118 118 118
0.004659 -0.027147 0.170020 -0.691032 0.109962 -0.714411 119 119 119
0.004668 -0.026960 0.170037 -0.726487 0.100947 -0.679726 119 119 119
0.004681 -0.026774 0.170062 -0.759874 0.150507 -0.632408 120 120 120
0.004699 -0.026590 0.170098 -0.783867 0.203516 -0.586629 121 121 121
0.004721 -0.026405 0.170143 -0.799425 0.234448 -0.553131 122 122 122
0.004745 -0.026221 0.170190 -0.806935 0.232088 -0.543130 122 122 122
0.004767 -0.026037 0.170232 -0.806037 0.188419 -0.561074 122 122 122
0.004783 -0.025851 0.170264 -0.801287 0.136378 -0.582529 123 123 123
0.004794 -0.025665 0.170286 -0.794125 0.114445 -0.596881 123 123 123
0.004806 -0.025478 0.170307 -0.788589 0.125714 -0.601933 123 123 123
0.004818 -0.025292 0.170330 -0.778967 0.116480 -0.616152 122 122 122
0.004829 -0.025105 0.170351 -0.772583 0.093801 -0.627947 121 121 121
0.004838 -0.024918 0.170366 -0.769930 0.054928 -0.635760 122 122 122
0.004842 -0.024730 0.170372 -0.762773 0.017870 -0.646419 124 124 124
0.004843 -0.024542 0.170373 -0.759185 0.006333 -0.650844 124 124 124
0.004845 -0.024354 0.170372 -0.762727 0.023313 -0.646300 124 124 124
0.004849 -0.024166 0.170378 -0.771588 0.063228 -0.632973 124 124 124
0.004857 -0.023979 0.170392 -0.781527 0.088771 -0.617524 124 124 124
0.004866 -0.023791 0.170407 -0.790819 0.084487 -0.606190 125 125 125
0.004873 -0.023604 0.170419 -0.795843 0.075572 -0.600768 126 126 126
0.004881 -0.023416 0.170432 -0.791317 0.081493 -0.605951 126 126 126
0.004891 -0.023229 0.170447 -0.782848 0.096800 -0.614637 126 126 126
0.004902 -0.023042 0.170467 -0.772185 0.105949 -0.626502 125 125 125
0.004914 -0.022855 0.170487 -0.760597 0.107331 -0.640291 125 125 125
0.004926 -0.022668 0.170507 -0.750007 0.085962 -0.655820 126 126 126
0.004934 -0.022480 0.170521 -0.746621 0.058361 -0.662685 125 125 125
0.004939 -0.022292 0.170526 -0.741629 0.024115 -0.670376 125 125 125
0.004941 -0.022104 0.170525 -0.739604 0.007517 -0.673000 125 125 125
0.004942 -0.021915 0.170525 -0.735427 0.004921 -0.677586 126 126 126
0.004944 -0.021726 0.170524 -0.714306 0.018420 -0.699591 127 127 127
0.004947 -0.021538 0.170524 -0.686236 0.039446 -0.726309 126 126 126
0.004951 -0.021350 0.170530 -0.652618 0.077486 -0.753715 127 127 127
0.004960 -0.021162 0.170542 -0.624152 0.108167 -0.773779 128 128 128
0.004971 -0.020974 0.170559 -0.608638 0.114578 -0.785132 128 128 128
0.004982 -0.020787 0.170576 -0.606474 0.096148 -0.789268 129 129 129
0.004990 -0.020599 0.170588 -0.609304 0.071382 -0.789718 128 128 128
0.004996 -0.020411 0.170596 -0.619029 0.030211 -0.784787 127 127 127
0.004997 -0.020222 0.170593 -0.632320 -0.015863 -0.774545 126 126 126
0.004996 -0.020033 0.170585 -0.644189 -0.031889 -0.764201 127 127 127
0.004995 -0.019844 0.170577 -0.650867 -0.026981 -0.758712 128 128 128
0.004995 -0.019655 0.170571 -0.657957 -0.016237 -0.752880 128 128 128
0.004996 -0.019466 0.170568 -0.664698 0.002400 -0.747108 128 128 128
0.004999 -0.019278 0.170568 -0.669761 0.022930 -0.742223 128 128 128
0.005005 -0.019089 0.170574 -0.674489 0.043550 -0.737000 128 128 128
0.005012 -0.018901 0.170583 -0.677456 0.060917 -0.733036 128 128 128
0.005021 -0.018713 0.170594 -0.682973 0.082944 -0.725719 129 129 129
0.005031 -0.018525 0.170609 -0.692590 0.102653 -0.713990 128 128 128
0.005044 -0.018338 0.170629 -0.705430 0.130051 -0.696747 127 127 127
0.005060 -0.018150 0.170655 -0.722504 0.167280 -0.670825 126 126 126
0.005080 -0.017963 0.170688 -0.740800 0.188463 -0.644745 124 124 124
0.005099 -0.017775 0.170721 -0.756815 0.184267 -0.627118 123 123 123
0.005117 -0.017588 0.170751 -0.760549 0.140877 -0.633813 122 122 122
0.005130 -0.017400 0.170771 -0.754901 0.073626 -0.651692 122 122 122
0.005137 -0.017211 0.170778 -0.749658 0.007182 -0.661786 122 122 122
0.005137 -0.017022 0.170771 -0.726223 -0.063234 -0.684545 124 124 124
0.005131 -0.016833 0.170752 -0.687677 -0.106732 -0.718128 125 125 125
0.005121 -0.016643 0.170724 -0.661133 -0.131784 -0.738605 127 127 127
0.005110 -0.016453 0.170695 -0.645245 -0.116000 -0.755118 128 128 128
0.005103 -0.016263 0.170673 -0.641533 -0.060515 -0.764705 129 129 129
0.005103 -0.016074 0.170666 -0.647795 -0.004492 -0.761801 129 129 129
0.005106 -0.015885 0.170667 -0.653509 0.040608 -0.755828 130 130 130
0.005115 -0.015697 0.170676 -0.659382 0.060179 -0.749396 131 131 131
0.005122 -0.015508 0.170684 -0.662175 0.055825 -0.747267 130 130 130
0.005130 -0.015320 0.170692 -0.664560 0.056986 -0.745058 131 131 131
0.005138 -0.015131 0.170701 -0.666512 0.068597 -0.742331 131 131 131
0.005148 -0.014943 0.170715 -0.675121 0.092761 -0.731852 131 131 131
0.005161 -0.014754 0.170733 -0.693801 0.108357 -0.711968 132 132 132
0.005175 -0.014566 0.170754 -0.722171 0.107644 -0.683287 132 132 132
0.005188 -0.014377 0.170771 -0.752275 0.086109 -0.653198 131 131 131
0.005197 -0.014189 0.170782 -0.772738 0.062288 -0.631661 130 130 130
0.005202 -0.014000 0.170785 -0.783837 0.033001 -0.620089 131 131 131
0.005208 -0.013811 0.170788 -0.775167 0.046716 -0.630027 131 131 131
0.005215 -0.013622 0.170794 -0.757771 0.070792 -0.648669 132 132 132
0.005224 -0.013433 0.170806 -0.740018 0.072163 -0.668705 132 132 132
0.005236 -0.013244 0.170821 -0.719839 0.091722 -0.688055 131 131 131
0.005249 -0.013056 0.170839 -0.705638 0.104292 -0.700855 132 132 132
0.005262 -0.012867 0.170857 -0.702585 0.103681 -0.704006 132 132 132
0.005273 -0.012678 0.170872 -0.711046 0.103894 -0.695427 133 133 133
0.005285 -0.012489 0.170888 -0.723934 0.093919 -0.683447 132 132 132
0.005295 -0.012300 0.170900 -0.728713 0.076356 -0.680549 130 130 130
0.005303 -0.012111 0.170908 -0.735281 0.047607 -0.676088 129 129 129
0.005309 -0.011922 0.170912 -0.730962 0.030160 -0.681752 129 129 129
0.005315 -0.011733 0.170916 -0.704709 0.020707 -0.709194 129 129 129
0.005321 -0.011543 0.170919 -0.699775 0.043214 -0.713055 130 130 130
0.005329 -0.011354 0.170926 -0.693603 0.077011 -0.716229 130 130 130
0.005338 -0.011165 0.170938 -0.710550 0.074875 -0.699651 130 130 130
0.005349 -0.010976 0.170950 -0.729868 0.093821 -0.677119 131 131 131
0.005357 -0.010787 0.170958 -0.757268 0.056551 -0.650652 131 131 131
0.005361 -0.010597 0.170958 -0.776832 0.007014 -0.629669 131 131 131
0.005361 -0.010408 0.170949 -0.784599 -0.035870 -0.618965 132 132 132
0.005359 -0.010219 0.170936 -0.774171 -0.041032 -0.631645 133 133 133
0.005357 -0.010029 0.170924 -0.755275 -0.015049 -0.655235 132 132 132
0.005359 -0.009840 0.170920 -0.732178 0.022681 -0.680736 132 132 132
0.005364 -0.009650 0.170921 -0.707580 0.050299 -0.704841 132 132 132
0.005371 -0.009461 0.170927 -0.687255 0.047989 -0.724829 132 132 132
0.005376 -0.009272 0.170928 -0.672606 0.014721 -0.739855 132 132 132
0.005378 -0.009082 0.170923 -0.665026 -0.033244 -0.746080 132 132 132
0.005375 -0.008893 0.170910 -0.663697 -0.070687 -0.744654 132 132 132
0.005371 -0.008704 0.170893 -0.671371 -0.072360 -0.737581 133 133 133
0.005369 -0.008514 0.170880 -0.686114 -0.034600 -0.726671 134 134 134
0.005372 -0.008325 0.170877 -0.692648 0.024202 -0.720869 133 133 133
0.005382 -0.008135 0.170888 -0.706410 0.091095 -0.701916 132 132 132
0.005396 -0.007946 0.170908 -0.716880 0.131630 -0.684658 132 132 132
0.005413 -0.007756 0.170933 -0.726134 0.151018 -0.670763 133 133 133
0.005430 -0.007566 0.170960 -0.737122 0.146646 -0.659656 134 134 134
0.005446 -0.007377 0.170983 -0.748298 0.127535 -0.650988 134 134 134
0.005460 -0.007187 0.171003 -0.759067 0.105101 -0.642472 132 132 132
0.005471 -0.006997 0.171016 -0.764017 0.057852 -0.642597 132 132 132
0.005477 -0.006807 0.171019 -0.764794 0.004337 -0.644261 132 132 132
0.005477 -0.006618 0.171011 -0.760559 -0.057361 -0.646730 134 134 134
0.005472 -0.006428 0.170992 -0.753696 -0.095162 -0.650298 132 132 132
0.005466 -0.006239 0.170971 -0.748166 -0.080466 -0.658615 131 131 131
0.005462 -0.006050 0.170956 -0.749655 -0.037287 -0.660777 129 129 129
0.005464 -0.005860 0.170950 -0.749680 0.015512 -0.661619 127 127 127
0.005471 -0.005670 0.170955 -0.752095 0.062397 -0.656095 125 125 125
0.005480 -0.005480 0.170967 -0.755225 0.084813 -0.649956 124 124 124
0.005491 -0.005290 0.170980 -0.760084 0.085716 -0.644147 124 124 124
0.005502 -0.005100 0.170993 -0.768438 0.066238 -0.636488 126 126 126
0.005509 -0.004910 0.171000 -0.778742 0.045239 -0.625711 128 128 128
0.005517 -0.004721 0.171006 -0.790505 0.041131 -0.611073 129 129 129
0.005524 -0.004531 0.171012 -0.798851 0.048566 -0.599565 130 130 130
0.005531 -0.004341 0.171019 -0.798375 0.060026 -0.599162 130 130 130
0.005540 -0.004150 0.171029 -0.788306 0.062343 -0.612116 130 130 130
0.005549 -0.003960 0.171038 -0.773994 0.050721 -0.631158 131 131 131
0.005556 -0.003770 0.171044 -0.760938 0.033006 -0.647985 132 132 132
0.005561 -0.003580 0.171046 -0.755280 0.037156 -0.654349 132 132 132
0.005567 -0.003390 0.171049 -0.746889 0.044249 -0.663475 132 132 132
0.005574 -0.003200 0.171056 -0.745261 0.054552 -0.664538 133 133 133
0.005583 -0.003010 0.171065 -0.750285 0.051519 -0.659104 133 133 133
0.005590 -0.002820 0.171072 -0.760270 0.028022 -0.649003 133 133 133
0.005594 -0.002629 0.171073 -0.770700 0.008400 -0.637143 133 133 133
0.005596 -0.002440 0.171067 -0.785101 -0.019242 -0.619069 133 133 133
0.005594 -0.002250 0.171056 -0.801807 -0.028859 -0.596886 133 133 133
0.005593 -0.002060 0.171047 -0.813025 -0.020613 -0.581864 133 133 133
0.005595 -0.001870 0.171043 -0.818880 0.015965 -0.573743 133 133 133
0.005601 -0.001680 0.171047 -0.814678 0.053322 -0.577457 132 132 132
0.005609 -0.001490 0.171056 -0.793477 0.062942 -0.605337 131 131 131
0.005620 -0.001299 0.171069 -0.773874 0.072341 -0.629194 131 131 131
0.005630 -0.001108 0.171082 -0.757042 0.071997 -0.649388 132 132 132
