ply
format ascii 1.0
element vertex 689
property double x
property double y
property double z
property double nx
property double ny
property double nz
property uchar red
property uchar green
property uchar blue
end_header
-0.018910 -0.023338 0.179008 0.447810 0.189384 -0.873842 115 115 115
-0.018889 -0.023154 0.179060 0.471224 0.110763 -0.875031 115 115 115
-0.018875 -0.022968 0.179091 0.499979 0.000406 -0.866037 115 115 115
-0.018871 -0.022780 0.179095 0.550555 -0.014235 -0.834677 115 115 115
-0.018883 -0.022590 0.179053 0.581018 -0.142432 -0.801331 115 115 115
-0.018910 -0.022397 0.178973 0.601573 -0.230296 -0.764901 115 115 115
-0.018942 -0.022204 0.178878 0.605835 -0.235277 -0.760005 115 115 115
-0.018969 -0.022011 0.178796 0.624295 -0.188509 -0.758103 115 115 115
-0.018989 -0.021820 0.178734 0.640549 -0.102086 -0.761101 115 115 115
-0.018992 -0.021631 0.178718 0.642229 -0.004174 -0.766502 114 114 114
-0.018978 -0.021445 0.178746 0.604616 0.087237 -0.791725 114 114 114
-0.018960 -0.021260 0.178789 0.562212 0.137838 -0.815425 114 114 114
-0.018937 -0.021075 0.178843 0.546045 0.097139 -0.832105 115 115 115
-0.018921 -0.020889 0.178878 0.546153 0.024674 -0.837322 114 114 114
-0.018912 -0.020702 0.178893 0.561235 -0.025269 -0.827271 113 113 113
-0.018912 -0.020514 0.178885 0.602305 -0.056868 -0.796238 114 114 114
-0.018928 -0.020324 0.178830 0.637725 -0.152827 -0.754951 116 116 116
-0.018956 -0.020132 0.178747 0.656766 -0.227343 -0.719009 116 116 116
-0.018997 -0.019938 0.178626 0.662662 -0.280559 -0.694381 116 116 116
-0.019041 -0.019744 0.178496 0.683070 -0.274378 -0.676855 118 118 118
-0.019077 -0.019551 0.178387 0.692779 -0.224531 -0.685305 119 119 119
-0.019104 -0.019360 0.178304 0.728126 -0.135205 -0.671976 119 119 119
-0.019106 -0.019172 0.178290 0.755339 -0.031093 -0.654596 121 121 121
-0.019085 -0.018987 0.178337 0.780289 0.064111 -0.622124 121 121 121
-0.019049 -0.018804 0.178427 0.762829 0.134764 -0.632401 121 121 121
-0.019000 -0.018621 0.178551 0.761342 0.176774 -0.623786 121 121 121
-0.018961 -0.018438 0.178647 0.707941 0.132597 -0.693713 121 121 121
-0.018932 -0.018253 0.178715 0.707979 0.096159 -0.699656 121 121 121
-0.018920 -0.018066 0.178739 0.697249 -0.003629 -0.716820 121 121 121
-0.018922 -0.017878 0.178723 0.655683 -0.101622 -0.748167 121 121 121
-0.018934 -0.017689 0.178679 0.607493 -0.163627 -0.777289 121 121 121
-0.018963 -0.017497 0.178590 0.545973 -0.262127 -0.795741 120 120 120
-0.018997 -0.017306 0.178486 0.510814 -0.277504 -0.813671 120 120 120
-0.019025 -0.017115 0.178400 0.518300 -0.178230 -0.836420 119 119 119
-0.019038 -0.016926 0.178354 0.551832 -0.049773 -0.832468 118 118 118
-0.019035 -0.016738 0.178351 0.590947 -0.009129 -0.806659 118 118 118
-0.019022 -0.016552 0.178377 0.597680 0.049688 -0.800193 118 118 118
-0.019010 -0.016365 0.178398 0.617565 0.050785 -0.784879 115 115 115
-0.018997 -0.016178 0.178424 0.637618 0.024741 -0.769955 118 118 118
-0.018991 -0.015991 0.178429 0.639866 -0.017326 -0.768291 119 119 119
-0.018990 -0.015803 0.178422 0.689460 -0.042066 -0.723101 118 118 118
-0.018990 -0.015615 0.178410 0.710660 -0.034173 -0.702705 118 118 118
-0.018990 -0.015427 0.178399 0.723571 0.002201 -0.690246 119 119 119
-0.018979 -0.015240 0.178418 0.721560 0.087267 -0.686830 119 119 119
-0.018954 -0.015054 0.178474 0.702664 0.132342 -0.699106 119 119 119
-0.018921 -0.014868 0.178555 0.682020 0.150868 -0.715603 119 119 119
-0.018887 -0.014682 0.178635 0.679429 0.106715 -0.725939 119 119 119
-0.018870 -0.014495 0.178669 0.685224 0.026966 -0.727833 117 117 117
-0.018871 -0.014307 0.178655 0.672667 -0.021545 -0.739632 120 120 120
-0.018874 -0.014119 0.178637 0.640172 -0.005093 -0.768215 119 119 119
-0.018865 -0.013931 0.178650 0.667715 0.049232 -0.742788 122 122 122
-0.018842 -0.013744 0.178702 0.655961 0.100135 -0.748123 120 120 120
-0.018818 -0.013557 0.178754 0.642329 0.106108 -0.759049 121 121 121
-0.018796 -0.013370 0.178804 0.620516 0.074569 -0.780641 120 120 120
-0.018786 -0.013182 0.178819 0.621702 0.027551 -0.782769 120 120 120
-0.018781 -0.012994 0.178822 0.634398 -0.013959 -0.772881 121 121 121
-0.018779 -0.012806 0.178815 0.647687 -0.054502 -0.759955 122 122 122
-0.018781 -0.012617 0.178799 0.674506 -0.097796 -0.731763 122 122 122
-0.018795 -0.012429 0.178748 0.687173 -0.159715 -0.708720 122 122 122
-0.018819 -0.012239 0.178670 0.687191 -0.191346 -0.700825 123 123 123
-0.018846 -0.012050 0.178586 0.634951 -0.224528 -0.739205 122 122 122
-0.018869 -0.011862 0.178512 0.635446 -0.183457 -0.750034 122 122 122
-0.018883 -0.011673 0.178461 0.579390 -0.087875 -0.810299 122 122 122
-0.018885 -0.011485 0.178444 0.536506 -0.063997 -0.841467 122 122 122
-0.018884 -0.011297 0.178435 0.526614 -0.066824 -0.847474 122 122 122
-0.018888 -0.011109 0.178413 0.524805 -0.087459 -0.846718 121 121 121
-0.018895 -0.010921 0.178382 0.551747 -0.112408 -0.826402 121 121 121
-0.018903 -0.010733 0.178348 0.579017 -0.104134 -0.808638 121 121 121
-0.018909 -0.010545 0.178320 0.607558 -0.069054 -0.791268 121 121 121
-0.018910 -0.010357 0.178305 0.626224 -0.034268 -0.778890 121 121 121
-0.018902 -0.010169 0.178316 0.628475 -0.007931 -0.777789 121 121 121
-0.018897 -0.009981 0.178317 0.642909 -0.014299 -0.765809 121 121 121
-0.018893 -0.009793 0.178318 0.656480 -0.044848 -0.753009 120 120 120
-0.018894 -0.009605 0.178301 0.679730 -0.099815 -0.726639 121 121 121
-0.018904 -0.009417 0.178262 0.700079 -0.150013 -0.698130 122 122 122
-0.018928 -0.009229 0.178187 0.702478 -0.184094 -0.687484 121 121 121
-0.018957 -0.009041 0.178096 0.704102 -0.184992 -0.685579 121 121 121
-0.018980 -0.008854 0.178021 0.712450 -0.155154 -0.684355 120 120 120
-0.018993 -0.008666 0.177973 0.706563 -0.094482 -0.701314 119 119 119
-0.018999 -0.008479 0.177945 0.685074 -0.029823 -0.727863 121 121 121
-0.018988 -0.008291 0.177963 0.670959 0.031939 -0.740806 121 121 121
-0.018975 -0.008103 0.177987 0.650328 0.082783 -0.755129 122 122 122
-0.018953 -0.007915 0.178034 0.631970 0.107404 -0.767514 123 123 123
-0.018933 -0.007727 0.178079 0.618927 0.119894 -0.776244 124 124 124
-0.018911 -0.007538 0.178126 0.618066 0.113395 -0.777905 124 124 124
-0.018891 -0.007350 0.178171 0.630041 0.101092 -0.769954 124 124 124
-0.018873 -0.007161 0.178206 0.653814 0.081604 -0.752242 124 124 124
-0.018859 -0.006973 0.178235 0.664925 0.053044 -0.745024 124 124 124
-0.018844 -0.006784 0.178263 0.642801 0.002352 -0.766029 124 124 124
-0.018839 -0.006596 0.178266 0.610380 -0.080765 -0.787981 124 124 124
-0.018844 -0.006408 0.178240 0.557920 -0.179064 -0.810346 125 125 125
-0.018873 -0.006222 0.178150 0.525080 -0.290246 -0.800030 126 126 126
-0.018917 -0.006036 0.178020 0.559055 -0.375962 -0.738993 125 125 125
-0.018971 -0.005850 0.177860 0.613483 -0.409781 -0.675069 125 125 125
-0.019017 -0.005665 0.177724 0.657757 -0.298350 -0.691623 124 124 124
-0.019047 -0.005479 0.177631 0.705133 -0.184898 -0.684544 124 124 124
-0.019058 -0.005292 0.177591 0.739556 -0.055604 -0.670795 124 124 124
-0.019046 -0.005104 0.177612 0.717935 0.074590 -0.692102 124 124 124
-0.019017 -0.004915 0.177679 0.691259 0.141440 -0.708629 122 122 122
-0.018986 -0.004725 0.177753 0.685007 0.142633 -0.714438 122 122 122
-0.018957 -0.004536 0.177822 0.670794 0.111516 -0.733212 120 120 120
-0.018939 -0.004347 0.177860 0.661822 0.038670 -0.748663 120 120 120
-0.018935 -0.004159 0.177860 0.641123 -0.036179 -0.766585 120 120 120
-0.018940 -0.003971 0.177837 0.624573 -0.090757 -0.775675 120 120 120
-0.018951 -0.003784 0.177796 0.607697 -0.105708 -0.787102 121 121 121
-0.018958 -0.003597 0.177765 0.587831 -0.089445 -0.804024 122 122 122
-0.018960 -0.003410 0.177750 0.558476 -0.066871 -0.826821 121 121 121
-0.018957 -0.003222 0.177748 0.519633 -0.088075 -0.849838 120 120 120
-0.018958 -0.003034 0.177734 0.459875 -0.126172 -0.878974 119 119 119
-0.018968 -0.002847 0.177698 0.435399 -0.169464 -0.884143 120 120 120
-0.018980 -0.002660 0.177655 0.419749 -0.138693 -0.896981 121 121 121
-0.018988 -0.002474 0.177622 0.443132 -0.092406 -0.891681 122 122 122
-0.018997 -0.002287 0.177589 0.490812 -0.047339 -0.869978 123 123 123
-0.018997 -0.002099 0.177579 0.520796 -0.026697 -0.853263 123 123 123
-0.018993 -0.001911 0.177579 0.542358 -0.011709 -0.840066 120 120 120
-0.018987 -0.001723 0.177587 0.552771 -0.036104 -0.832551 122 122 122
-0.018989 -0.001535 0.177572 0.567649 -0.095092 -0.817760 121 121 121
-0.018998 -0.001348 0.177537 0.581187 -0.122038 -0.804567 123 123 123
-0.019019 -0.001163 0.177471 0.589103 -0.197504 -0.783550 122 122 122
-0.019048 -0.000979 0.177383 0.594535 -0.210290 -0.776084 121 121 121
-0.019071 -0.000794 0.177310 0.602302 -0.085674 -0.793658 123 123 123
-0.019073 -0.000606 0.177296 0.594393 -0.029710 -0.803626 123 123 123
-0.019056 -0.000417 0.177334 0.560657 0.125157 -0.818535 121 121 121
-0.019024 -0.000225 0.177414 0.510343 0.234693 -0.827326 122 122 122
-0.018991 -0.000033 0.177495 0.458409 0.189758 -0.868247 122 122 122
-0.018964 0.000158 0.177559 0.400638 0.110986 -0.909489 122 122 122
-0.018956 0.000347 0.177573 0.329988 -0.085344 -0.940119 121 121 121
-0.018964 0.000534 0.177543 0.262562 -0.176426 -0.948649 120 120 120
-0.018981 0.000719 0.177487 0.201026 -0.264383 -0.943234 121 121 121
-0.019001 0.000904 0.177424 0.182109 -0.259762 -0.948346 121 121 121
-0.019016 0.001090 0.177375 0.215309 -0.210509 -0.953587 120 120 120
-0.019026 0.001276 0.177341 0.247421 -0.099972 -0.963737 120 120 120
-0.019029 0.001464 0.177325 0.310136 -0.061798 -0.948682 120 120 120
-0.019023 0.001653 0.177335 0.375762 0.021547 -0.926466 119 119 119
-0.019013 0.001842 0.177355 0.422846 0.054163 -0.904582 120 120 120
-0.019001 0.002032 0.177379 0.457704 0.091115 -0.884424 120 120 120
-0.018984 0.002222 0.177419 0.495411 0.112117 -0.861393 119 119 119
-0.018968 0.002413 0.177455 0.520599 0.036702 -0.853012 119 119 119
-0.018964 0.002601 0.177460 0.556068 -0.013233 -0.831031 118 118 118
-0.018980 0.002787 0.177409 0.586763 -0.164013 -0.792975 118 118 118
-0.019013 0.002969 0.177312 0.602816 -0.274132 -0.749309 120 120 120
-0.019057 0.003150 0.177186 0.622293 -0.242485 -0.744280 121 121 121
-0.019085 0.003333 0.177104 0.653354 -0.156211 -0.740761 121 121 121
-0.019093 0.003520 0.177076 0.651112 -0.020139 -0.758715 121 121 121
-0.019082 0.003710 0.177100 0.623993 0.084164 -0.776885 121 121 121
-0.019058 0.003902 0.177159 0.602870 0.117705 -0.789109 121 121 121
-0.019037 0.004093 0.177211 0.594443 0.044836 -0.802887 122 122 122
-0.019029 0.004283 0.177226 0.611239 -0.004013 -0.791436 123 123 123
-0.019034 0.004470 0.177209 0.613554 -0.091315 -0.784355 123 123 123
-0.019048 0.004656 0.177165 0.627477 -0.140026 -0.765941 123 123 123
-0.019067 0.004840 0.177108 0.642166 -0.135456 -0.754503 123 123 123
-0.019085 0.005025 0.177054 0.654723 -0.090038 -0.750487 122 122 122
-0.019088 0.005212 0.177040 0.650639 -0.035754 -0.758545 121 121 121
-0.019083 0.005401 0.177050 0.634912 -0.041347 -0.771477 120 120 120
-0.019080 0.005590 0.177054 0.608921 -0.091251 -0.787965 120 120 120
-0.019105 0.005773 0.176982 0.565989 -0.298396 -0.768516 120 120 120
-0.019169 0.005948 0.176802 0.518705 -0.578826 -0.629210 120 120 120
-0.019289 0.006112 0.176473 0.316366 -0.833288 -0.453369 120 120 120
-0.019443 0.006267 0.176048 0.114758 -0.906480 -0.406355 119 119 119
-0.019605 0.006420 0.175604 -0.262475 -0.914991 -0.306428 117 117 117
-0.019735 0.006579 0.175245 -0.288021 -0.768906 -0.570813 117 117 117
-0.019803 0.006751 0.175059 -0.171734 -0.360749 -0.916716 116 116 116
-0.019797 0.006939 0.175072 -0.272735 0.366616 -0.889499 114 114 114
-0.019725 0.007142 0.175265 -0.065709 0.728165 -0.682244 114 114 114
-0.019605 0.007356 0.175590 0.194039 0.778231 -0.597248 115 115 115
-0.019475 0.007572 0.175942 0.468003 0.627629 -0.622138 116 116 116
-0.019350 0.007789 0.176281 0.594104 0.490927 -0.637206 115 115 115
-0.019259 0.007998 0.176526 0.685897 0.344146 -0.641178 116 116 116
-0.019199 0.008200 0.176689 0.691576 0.317841 -0.648613 115 115 115
-0.019164 0.008397 0.176782 0.672598 0.222726 -0.705695 116 116 116
-0.019139 0.008591 0.176849 0.680805 0.116830 -0.723088 116 116 116
-0.019128 0.008783 0.176878 0.680518 0.005710 -0.732709 115 115 115
-0.019137 0.008969 0.176854 0.672123 -0.093340 -0.734533 115 115 115
-0.019154 0.009154 0.176807 0.666820 -0.179662 -0.723238 115 115 115
-0.019187 0.009334 0.176717 0.651289 -0.211388 -0.728792 115 115 115
-0.019225 0.009513 0.176613 0.663511 -0.175292 -0.727341 115 115 115
-0.019244 0.009697 0.176562 0.682751 -0.079572 -0.726305 115 115 115
-0.019247 0.009885 0.176555 0.691035 0.013683 -0.722692 117 117 117
-0.019232 0.010078 0.176595 0.685031 0.065991 -0.725519 117 117 117
-0.019221 0.010269 0.176626 0.690255 0.070805 -0.720094 115 115 115
-0.019210 0.010461 0.176658 0.688080 0.037455 -0.724668 115 115 115
-0.019206 0.010651 0.176669 0.702025 -0.000432 -0.712153 115 115 115
-0.019214 0.010838 0.176649 0.699005 -0.036894 -0.714164 114 114 114
-0.019222 0.011025 0.176629 0.711277 -0.064147 -0.699979 115 115 115
-0.019231 0.011211 0.176606 0.722728 -0.089617 -0.685297 115 115 115
-0.019250 0.011395 0.176557 0.724002 -0.119551 -0.679359 114 114 114
-0.019275 0.011577 0.176492 0.724402 -0.141986 -0.674598 114 114 114
-0.019305 0.011758 0.176412 0.729865 -0.154766 -0.665842 113 113 113
-0.019326 0.011941 0.176358 0.729845 -0.154193 -0.665996 113 113 113
-0.018935 -0.035850 0.178408 0.515261 0.569160 -0.640752 97 97 97
-0.018893 -0.035678 0.178529 0.465918 0.661336 -0.587839 97 97 97
-0.018818 -0.035517 0.178742 0.270493 0.762798 -0.587343 96 96 96
-0.018736 -0.035357 0.178975 0.146366 0.737652 -0.659126 97 97 97
-0.018665 -0.035194 0.179174 0.155896 0.603292 -0.782135 98 98 98
-0.018625 -0.035020 0.179292 0.231918 0.396853 -0.888100 99 99 99
-0.018614 -0.034836 0.179326 0.392681 0.067070 -0.917226 100 100 100
-0.018626 -0.034644 0.179299 0.484485 -0.129602 -0.865146 101 101 101
-0.018653 -0.034448 0.179229 0.540316 -0.235536 -0.807825 102 102 102
-0.018699 -0.034246 0.179106 0.580959 -0.320429 -0.748206 103 103 103
-0.018748 -0.034043 0.178978 0.627580 -0.339017 -0.700864 103 103 103
-0.018806 -0.033837 0.178822 0.654024 -0.233590 -0.719505 102 102 102
-0.018833 -0.033642 0.178754 0.758452 -0.053993 -0.649488 101 101 101
-0.018828 -0.033456 0.178771 0.723376 -0.009947 -0.690383 101 101 101
-0.018803 -0.033277 0.178841 0.736761 -0.040171 -0.674959 102 102 102
-0.018788 -0.033094 0.178886 0.794052 -0.054772 -0.605377 102 102 102
-0.018806 -0.032901 0.178839 0.671603 -0.267791 -0.690824 102 102 102
-0.018883 -0.032691 0.178632 0.626072 -0.442717 -0.641899 103 103 103
-0.019006 -0.032467 0.178297 0.459195 -0.651406 -0.603995 103 103 103
-0.019151 -0.032238 0.177904 0.264119 -0.772530 -0.577441 102 102 102
-0.019278 -0.032014 0.177556 -0.148698 -0.754424 -0.639323 102 102 102
-0.019364 -0.031802 0.177322 -0.150719 -0.296809 -0.942968 102 102 102
-0.019385 -0.031610 0.177269 -0.206065 0.128224 -0.970101 102 102 102
-0.019322 -0.031442 0.177442 0.057187 0.646504 -0.760764 102 102 102
-0.019194 -0.031292 0.177792 0.317798 0.833589 -0.451812 102 102 102
-0.019052 -0.031145 0.178184 0.464652 0.721415 -0.513478 102 102 102
-0.018931 -0.030992 0.178513 0.539763 0.549445 -0.637782 101 101 101
-0.018866 -0.030823 0.178693 0.608289 0.229002 -0.759963 101 101 101
-0.018846 -0.030641 0.178748 0.614746 -0.057780 -0.786606 101 101 101
-0.018860 -0.030449 0.178709 0.604335 -0.087435 -0.791918 101 101 101
-0.018895 -0.030252 0.178613 0.601989 -0.228169 -0.765211 100 100 100
-0.018936 -0.030054 0.178501 0.621822 -0.279656 -0.731526 100 100 100
-0.018972 -0.029857 0.178400 0.655722 -0.246467 -0.713641 100 100 100
-0.019001 -0.029662 0.178321 0.670019 -0.177120 -0.720904 102 102 102
-0.019020 -0.029470 0.178269 0.702123 -0.103830 -0.704445 103 103 103
-0.019030 -0.029280 0.178241 0.653431 -0.120397 -0.747350 104 104 104
-0.019037 -0.029091 0.178218 0.594058 -0.164609 -0.787400 106 106 106
-0.019050 -0.028901 0.178182 0.496641 -0.141921 -0.856275 107 107 107
-0.019067 -0.028709 0.178133 0.292424 -0.088142 -0.952218 108 108 108
-0.019088 -0.028517 0.178074 -0.377158 -0.080712 -0.922625 108 108 108
-0.019105 -0.028326 0.178024 -0.592524 -0.131138 -0.794807 109 109 109
-0.019116 -0.028136 0.177992 -0.791336 -0.049698 -0.609358 110 110 110
-0.019111 -0.027950 0.178005 -0.696353 0.253237 -0.671538 110 110 110
-0.019092 -0.027767 0.178054 -0.661076 0.228367 -0.714722 111 111 111
-0.019055 -0.027589 0.178151 -0.218100 0.499411 -0.838464 112 112 112
-0.018997 -0.027415 0.178306 0.206872 0.583019 -0.785680 112 112 112
-0.018930 -0.027243 0.178486 0.410990 0.531463 -0.740699 112 112 112
-0.018866 -0.027070 0.178656 0.531379 0.439323 -0.724315 112 112 112
-0.018811 -0.026894 0.178802 0.557483 0.354191 -0.750841 112 112 112
-0.018767 -0.026716 0.178919 0.578371 0.254368 -0.775102 111 111 111
-0.018735 -0.026535 0.179001 0.592513 0.149417 -0.791582 112 112 112
-0.018715 -0.026351 0.179052 0.616875 0.094128 -0.781412 113 113 113
-0.018710 -0.026164 0.179061 0.593439 0.034961 -0.804119 113 113 113
-0.018710 -0.025976 0.179055 0.532109 0.011008 -0.846604 113 113 113
-0.018710 -0.025788 0.179052 0.454053 0.048560 -0.889651 113 113 113
-0.018711 -0.025599 0.179045 0.312718 0.024330 -0.949535 113 113 113
-0.018715 -0.025410 0.179027 0.131805 -0.122430 -0.983686 114 114 114
-0.018734 -0.025218 0.178970 -0.035070 -0.344079 -0.938285 115 115 115
-0.018768 -0.025023 0.178872 -0.104608 -0.505802 -0.856284 116 116 116
-0.018813 -0.024826 0.178744 -0.081757 -0.548108 -0.832402 115 115 115
-0.018855 -0.024630 0.178623 0.010631 -0.422614 -0.906247 114 114 114
-0.018873 -0.024439 0.178569 0.058019 -0.142581 -0.988081 115 115 115
-0.018860 -0.024253 0.178597 0.201611 0.238482 -0.949989 116 116 116
-0.018822 -0.024073 0.178695 0.290405 0.432509 -0.853581 117 117 117
-0.018770 -0.023894 0.178829 0.350493 0.464440 -0.813296 116 116 116
-0.018721 -0.023715 0.178957 0.405026 0.410838 -0.816803 116 116 116
-0.018678 -0.023534 0.179067 0.464635 0.290372 -0.836540 117 117 117
-0.018649 -0.023351 0.179140 0.499947 0.220815 -0.837433 117 117 117
-0.018622 -0.023168 0.179206 0.538040 0.154958 -0.828554 117 117 117
-0.018600 -0.022983 0.179259 0.563986 0.062221 -0.823437 116 116 116
-0.018586 -0.022797 0.179291 0.591276 -0.013800 -0.806351 116 116 116
-0.018589 -0.022608 0.179273 0.589188 -0.069087 -0.805037 116 116 116
-0.018610 -0.022416 0.179209 0.589564 -0.186932 -0.785793 116 116 116
-0.018640 -0.022222 0.179121 0.593150 -0.235685 -0.769821 116 116 116
-0.018667 -0.022029 0.179040 0.603634 -0.174876 -0.777846 117 117 117
-0.018687 -0.021838 0.178975 0.626095 -0.116725 -0.770960 117 117 117
-0.018691 -0.021649 0.178957 0.640458 -0.026654 -0.767530 117 117 117
-0.018681 -0.021462 0.178977 0.631168 0.053779 -0.773780 117 117 117
-0.018666 -0.021276 0.179010 0.620823 0.090670 -0.778690 117 117 117
-0.018647 -0.021090 0.179052 0.606324 0.093040 -0.789756 117 117 117
-0.018634 -0.020904 0.179080 0.591573 0.075358 -0.802722 117 117 117
-0.018621 -0.020717 0.179104 0.577393 0.029764 -0.815924 117 117 117
-0.018613 -0.020530 0.179119 0.582911 -0.035619 -0.811755 117 117 117
-0.018618 -0.020341 0.179097 0.578561 -0.073509 -0.812320 118 118 118
-0.018633 -0.020150 0.179046 0.604473 -0.154816 -0.781437 118 118 118
-0.018664 -0.019958 0.178954 0.648600 -0.217648 -0.729347 118 118 118
-0.018696 -0.019765 0.178856 0.666953 -0.210259 -0.714818 117 117 117
-0.018721 -0.019573 0.178780 0.728451 -0.147028 -0.669136 116 116 116
-0.018732 -0.019384 0.178739 0.762254 -0.058158 -0.644661 115 115 115
-0.018719 -0.019197 0.178765 0.775912 0.021420 -0.630477 115 115 115
-0.018686 -0.019013 0.178846 0.785243 0.095475 -0.611783 114 114 114
-0.018645 -0.018830 0.178947 0.762200 0.126816 -0.634798 113 113 113
-0.018604 -0.018646 0.179049 0.754395 0.080007 -0.651527 114 114 114
-0.018584 -0.018460 0.179095 0.749758 0.047522 -0.660003 112 112 112
-0.018577 -0.018272 0.179102 0.725666 -0.070809 -0.684394 114 114 114
-0.018587 -0.018082 0.179067 0.693382 -0.122388 -0.710100 115 115 115
-0.018606 -0.017892 0.179005 0.660131 -0.193341 -0.725842 116 116 116
-0.018631 -0.017701 0.178925 0.628138 -0.238580 -0.740623 117 117 117
-0.018672 -0.017508 0.178805 0.590284 -0.306369 -0.746795 118 118 118
-0.018713 -0.017316 0.178681 0.571813 -0.282831 -0.770089 119 119 119
-0.018744 -0.017124 0.178588 0.571303 -0.161522 -0.804689 119 119 119
-0.018755 -0.016935 0.178548 0.582073 -0.024634 -0.812764 120 120 120
-0.018747 -0.016748 0.178559 0.599982 0.037624 -0.799128 120 120 120
-0.018729 -0.016561 0.178598 0.599061 0.108693 -0.793292 122 122 122
-0.018708 -0.016375 0.178644 0.620619 0.130598 -0.773160 122 122 122
-0.018683 -0.016189 0.178699 0.650798 0.122509 -0.749302 122 122 122
-0.018662 -0.016003 0.178747 0.688902 0.089378 -0.719323 122 122 122
-0.018644 -0.015816 0.178785 0.719380 0.042439 -0.693319 122 122 122
-0.018635 -0.015628 0.178797 0.733462 0.003393 -0.679722 122 122 122
-0.018635 -0.015440 0.178789 0.725579 -0.012247 -0.688030 121 121 121
-0.018631 -0.015252 0.178786 0.699182 0.012327 -0.714837 121 121 121
-0.018618 -0.015064 0.178812 0.694128 0.069207 -0.716517 120 120 120
-0.018596 -0.014878 0.178859 0.661887 0.096367 -0.743383 120 120 120
-0.018572 -0.014691 0.178915 0.657568 0.072338 -0.749914 121 121 121
-0.018557 -0.014503 0.178945 0.655195 0.015205 -0.755307 122 122 122
-0.018558 -0.014315 0.178929 0.640804 -0.034097 -0.766947 122 122 122
-0.018562 -0.014126 0.178906 0.633135 -0.027056 -0.773568 122 122 122
-0.018558 -0.013938 0.178908 0.628837 0.030896 -0.776923 123 123 123
-0.018540 -0.013750 0.178944 0.607653 0.081626 -0.789997 121 121 121
-0.018521 -0.013563 0.178984 0.591869 0.096504 -0.800236 120 120 120
-0.018502 -0.013375 0.179025 0.589428 0.074363 -0.804391 120 120 120
-0.018492 -0.013187 0.179040 0.596492 0.045808 -0.801310 119 119 119
-0.018483 -0.012999 0.179054 0.603120 0.025861 -0.797231 119 119 119
-0.018475 -0.012811 0.179065 0.615404 0.001686 -0.788210 120 120 120
-0.018467 -0.012622 0.179074 0.630546 -0.053349 -0.774316 120 120 120
-0.018471 -0.012434 0.179051 0.656590 -0.125152 -0.743792 121 121 121
-0.018492 -0.012244 0.178984 0.656689 -0.210932 -0.724063 120 120 120
-0.018523 -0.012055 0.178888 0.646815 -0.255608 -0.718537 119 119 119
-0.018559 -0.011865 0.178777 0.629463 -0.243936 -0.737747 120 120 120
-0.018589 -0.011676 0.178684 0.606382 -0.185936 -0.773130 120 120 120
-0.018605 -0.011487 0.178629 0.575501 -0.127529 -0.807796 121 121 121
-0.018612 -0.011299 0.178598 0.545426 -0.097679 -0.832448 122 122 122
-0.018616 -0.011110 0.178574 0.533595 -0.081877 -0.841767 123 123 123
-0.018619 -0.010922 0.178556 0.537460 -0.069154 -0.840449 123 123 123
-0.018619 -0.010734 0.178543 0.563375 -0.048158 -0.824796 123 123 123
-0.018617 -0.010546 0.178536 0.589269 -0.017336 -0.807751 124 124 124
-0.018612 -0.010358 0.178538 0.608144 0.011370 -0.793745 123 123 123
-0.018600 -0.010170 0.178559 0.608884 0.025662 -0.792844 123 123 123
-0.018592 -0.009981 0.178569 0.595830 0.020851 -0.802840 123 123 123
-0.018583 -0.009793 0.178584 0.558155 0.004839 -0.829723 123 123 123
-0.018575 -0.009605 0.178592 0.571377 -0.036710 -0.819866 124 124 124
-0.018575 -0.009417 0.178580 0.594919 -0.107244 -0.796599 126 126 126
-0.018591 -0.009228 0.178526 0.610098 -0.170847 -0.773687 126 126 126
-0.018616 -0.009040 0.178447 0.659784 -0.186609 -0.727916 125 125 125
-0.018639 -0.008852 0.178372 0.678358 -0.168004 -0.715266 125 125 125
-0.018656 -0.008665 0.178315 0.688212 -0.122141 -0.715154 124 124 124
-0.018666 -0.008477 0.178274 0.692977 -0.077367 -0.716797 125 125 125
-0.018663 -0.008289 0.178272 0.682593 -0.023425 -0.730423 124 124 124
-0.018658 -0.008100 0.178273 0.664171 0.019538 -0.747325 123 123 123
-0.018646 -0.007912 0.178295 0.644385 0.050897 -0.763006 123 123 123
-0.018633 -0.007724 0.178319 0.625591 0.088594 -0.775104 123 123 123
-0.018613 -0.007535 0.178360 0.617828 0.116376 -0.777654 122 122 122
-0.018589 -0.007346 0.178416 0.615619 0.127375 -0.777682 121 121 121
-0.018564 -0.007157 0.178472 0.627845 0.099937 -0.771896 119 119 119
-0.018548 -0.006969 0.178503 0.623918 0.023248 -0.781144 117 117 117
-0.018541 -0.006780 0.178510 0.585708 -0.073782 -0.807157 115 115 115
-0.018550 -0.006592 0.178475 0.539363 -0.156119 -0.827475 114 114 114
-0.018571 -0.006405 0.178407 0.467507 -0.278658 -0.838920 116 116 116
-0.018606 -0.006218 0.178301 0.443553 -0.335926 -0.830912 117 117 117
-0.018637 -0.006031 0.178205 0.491411 -0.276663 -0.825817 120 120 120
-0.018666 -0.005845 0.178114 0.599919 -0.213453 -0.771061 119 119 119
-0.018685 -0.005658 0.178053 0.615318 -0.184238 -0.766446 121 121 121
-0.018694 -0.005470 0.178016 0.682278 -0.070359 -0.727700 121 121 121
-0.018696 -0.005282 0.178000 0.691163 -0.024741 -0.722275 122 122 122
-0.018690 -0.005094 0.178005 0.705849 0.013858 -0.708227 122 122 122
-0.018676 -0.004905 0.178033 0.686500 0.050982 -0.725340 123 123 123
-0.018659 -0.004716 0.178067 0.662274 0.067329 -0.746230 122 122 122
-0.018641 -0.004527 0.178106 0.649702 0.047621 -0.758696 124 124 124
-0.018630 -0.004338 0.178126 0.628192 -0.007962 -0.778018 124 124 124
-0.018630 -0.004150 0.178116 0.612798 -0.076632 -0.786515 125 125 125
-0.018638 -0.003963 0.178083 0.596022 -0.136475 -0.791285 124 124 124
-0.018654 -0.003776 0.178028 0.574930 -0.168630 -0.800637 125 125 125
-0.018670 -0.003589 0.177975 0.554439 -0.147421 -0.819063 124 124 124
-0.018681 -0.003402 0.177933 0.496600 -0.136657 -0.857154 124 124 124
-0.018692 -0.003215 0.177894 0.418395 -0.159805 -0.894096 124 124 124
-0.018707 -0.003028 0.177842 0.325924 -0.223091 -0.918697 124 124 124
-0.018727 -0.002842 0.177779 0.263491 -0.233021 -0.936095 124 124 124
-0.018740 -0.002656 0.177732 0.260879 -0.122711 -0.957541 124 124 124
-0.018743 -0.002468 0.177716 0.306582 -0.072600 -0.949071 125 125 125
-0.018740 -0.002280 0.177713 0.392126 -0.006995 -0.919885 125 125 125
-0.018731 -0.002091 0.177728 0.470151 0.039670 -0.881694 124 124 124
-0.018720 -0.001902 0.177747 0.530272 0.048767 -0.846424 125 125 125
-0.018709 -0.001713 0.177768 0.568854 0.017635 -0.822249 124 124 124
-0.018705 -0.001525 0.177769 0.595426 -0.044861 -0.802156 125 125 125
-0.018707 -0.001337 0.177755 0.624937 -0.115078 -0.772147 125 125 125
-0.018719 -0.001150 0.177712 0.641557 -0.158628 -0.750494 125 125 125
-0.018745 -0.000965 0.177634 0.652467 -0.172778 -0.737858 126 126 126
-0.018768 -0.000780 0.177562 0.657269 -0.128128 -0.742685 126 126 126
-0.018775 -0.000593 0.177533 0.656504 -0.027087 -0.753836 125 125 125
-0.018767 -0.000404 0.177547 0.583620 0.101079 -0.805712 123 123 123
-0.018746 -0.000214 0.177595 0.581449 0.132355 -0.802745 124 124 124
-0.018722 -0.000023 0.177652 0.552312 0.121548 -0.824729 124 124 124
-0.018705 0.000167 0.177688 0.523551 -0.055869 -0.850161 124 124 124
-0.018708 0.000355 0.177672 0.462681 -0.110278 -0.879639 124 124 124
-0.018726 0.000541 0.177615 0.392233 -0.232906 -0.889892 123 123 123
-0.018750 0.000725 0.177542 0.333195 -0.287765 -0.897871 123 123 123
-0.018774 0.000910 0.177467 0.302258 -0.242964 -0.921742 123 123 123
-0.018787 0.001096 0.177424 0.310187 -0.147075 -0.939230 123 123 123
-0.018792 0.001283 0.177404 0.324098 -0.083024 -0.942373 122 122 122
-0.018786 0.001472 0.177411 0.353048 0.019321 -0.935406 122 122 122
-0.018775 0.001662 0.177435 0.373985 0.079405 -0.924029 122 122 122
-0.018761 0.001852 0.177465 0.381382 0.109718 -0.917884 123 123 123
-0.018745 0.002042 0.177501 0.383483 0.154255 -0.910574 124 124 124
-0.018723 0.002234 0.177553 0.410420 0.199922 -0.889711 123 123 123
-0.018701 0.002425 0.177606 0.439941 0.098139 -0.892648 123 123 123
-0.018688 0.002616 0.177635 0.505251 -0.027793 -0.862525 122 122 122
-0.018694 0.002803 0.177611 0.539570 -0.113767 -0.834219 122 122 122
-0.018717 0.002988 0.177544 0.584713 -0.211903 -0.783076 122 122 122
-0.018751 0.003170 0.177444 0.613306 -0.210998 -0.761141 122 122 122
-0.018775 0.003354 0.177373 0.622032 -0.144045 -0.769628 121 121 121
-0.018783 0.003541 0.177345 0.647144 -0.038922 -0.761373 119 119 119
-0.018777 0.003730 0.177356 0.618594 0.045239 -0.784407 119 119 119
-0.018760 0.003921 0.177394 0.585696 0.083332 -0.806236 117 117 117
-0.018744 0.004113 0.177433 0.574505 0.054608 -0.816677 117 117 117
-0.018737 0.004302 0.177448 0.581441 0.014295 -0.813463 116 116 116
-0.018736 0.004491 0.177444 0.604112 -0.049163 -0.795381 115 115 115
-0.018744 0.004678 0.177416 0.631853 -0.106900 -0.767681 113 113 113
-0.018760 0.004863 0.177370 0.646550 -0.123429 -0.752820 112 112 112
-0.018777 0.005048 0.177317 0.653695 -0.106659 -0.749204 114 114 114
-0.018786 0.005235 0.177288 0.634809 -0.072555 -0.769255 113 113 113
-0.018789 0.005423 0.177277 0.605588 -0.093780 -0.790233 113 113 113
-0.018792 0.005611 0.177265 0.593821 -0.126043 -0.794663 114 114 114
-0.018826 0.005792 0.177167 0.549321 -0.345440 -0.760867 116 116 116
-0.018900 0.005965 0.176960 0.515437 -0.610114 -0.601736 118 118 118
-0.019034 0.006126 0.176594 0.357356 -0.824954 -0.437890 119 119 119
-0.019206 0.006278 0.176121 0.222944 -0.877258 -0.425106 119 119 119
-0.019384 0.006428 0.175635 0.293956 -0.837725 -0.460225 120 120 120
-0.019520 0.006586 0.175262 0.355436 -0.731906 -0.581360 120 120 120
-0.019579 0.006760 0.175098 -0.171734 -0.360749 -0.916716 120 120 120
-0.019558 0.006951 0.175154 0.367465 0.317408 -0.874198 120 120 120
-0.019465 0.007158 0.175402 0.420517 0.646524 -0.636532 120 120 120
-0.019324 0.007377 0.175784 0.396249 0.725198 -0.563093 118 118 118
-0.019177 0.007598 0.176182 0.446050 0.673772 -0.589128 117 117 117
-0.019040 0.007817 0.176551 0.491515 0.592095 -0.638621 119 119 119
-0.018942 0.008028 0.176817 0.545513 0.455283 -0.703657 117 117 117
-0.018877 0.008232 0.176992 0.562111 0.325389 -0.760363 118 118 118
-0.018844 0.008428 0.177080 0.566156 0.176050 -0.805279 119 119 119
-0.018826 0.008622 0.177128 0.566797 0.096821 -0.818149 119 119 119
-0.018821 0.008812 0.177139 0.589326 -0.015874 -0.807740 119 119 119
-0.018833 0.008998 0.177106 0.615184 -0.109002 -0.780812 118 118 118
-0.018852 0.009182 0.177054 0.633902 -0.177183 -0.752844 118 118 118
-0.018884 0.009363 0.176969 0.639849 -0.181413 -0.746782 117 117 117
-0.018913 0.009545 0.176890 0.675121 -0.120068 -0.727870 117 117 117
-0.018919 0.009732 0.176872 0.713455 -0.025114 -0.700251 116 116 116
-0.018914 0.009923 0.176886 0.708944 0.053003 -0.703270 115 115 115
-0.018897 0.010116 0.176934 0.706560 0.074407 -0.703731 114 114 114
-0.018886 0.010308 0.176965 0.709594 0.066971 -0.701420 113 113 113
-0.018876 0.010500 0.176993 0.706805 0.036726 -0.706454 113 113 113
-0.018873 0.010690 0.177003 0.716868 0.015296 -0.697041 113 113 113
-0.018876 0.010879 0.176995 0.721095 -0.005695 -0.692812 112 112 112
-0.018876 0.011068 0.176996 0.720907 -0.026619 -0.692520 113 113 113
-0.018880 0.011257 0.176988 0.738902 -0.058230 -0.671292 112 112 112
-0.018897 0.011441 0.176944 0.728232 -0.128872 -0.673105 112 112 112
-0.018924 0.011623 0.176872 0.715667 -0.174383 -0.676322 111 111 111
-0.018961 0.011803 0.176776 0.716292 -0.196677 -0.669510 112 112 112
-0.018990 0.011984 0.176700 0.713196 -0.186786 -0.675620 113 113 113
-0.018587 -0.035905 0.178777 0.661181 0.264036 -0.702228 100 100 100
-0.018586 -0.035719 0.178787 0.479383 0.456837 -0.749327 100 100 100
-0.018554 -0.035542 0.178881 0.405564 0.507101 -0.760504 100 100 100
-0.018500 -0.035373 0.179034 0.423646 0.542783 -0.725197 100 100 100
-0.018437 -0.035207 0.179215 0.302044 0.567956 -0.765634 100 100 100
-0.018386 -0.035036 0.179359 0.327839 0.421774 -0.845357 100 100 100
-0.018360 -0.034857 0.179436 0.339220 0.197603 -0.919719 100 100 100
-0.018359 -0.034670 0.179443 0.397727 -0.029508 -0.917029 102 102 102
-0.018376 -0.034477 0.179403 0.450224 -0.162180 -0.878064 102 102 102
-0.018407 -0.034279 0.179323 0.547214 -0.189991 -0.815144 103 103 103
-0.018431 -0.034084 0.179262 0.621961 -0.142172 -0.770033 103 103 103
-0.018455 -0.033889 0.179199 0.650748 -0.049676 -0.757667 102 102 102
-0.018449 -0.033703 0.179221 0.684262 0.080801 -0.724746 100 100 100
-0.018421 -0.033524 0.179298 0.714866 0.111823 -0.690262 100 100 100
-0.018387 -0.033347 0.179395 0.766882 0.086281 -0.635962 99 99 99
-0.018377 -0.033162 0.179425 0.810516 -0.089805 -0.578791 99 99 99
-0.018418 -0.032962 0.179318 0.725326 -0.309855 -0.614729 100 100 100
-0.018532 -0.032740 0.179009 0.628002 -0.513469 -0.584776 100 100 100
-0.018701 -0.032502 0.178550 0.458083 -0.689831 -0.560618 100 100 100
-0.018891 -0.032259 0.178033 0.280602 -0.795901 -0.536474 99 99 99
-0.019050 -0.032026 0.177600 0.306817 -0.688205 -0.657448 99 99 99
-0.019147 -0.031811 0.177337 0.154574 -0.598744 -0.785883 99 99 99
-0.019157 -0.031622 0.177313 0.316534 0.407279 -0.856697 100 100 100
-0.019071 -0.031461 0.177548 0.387128 0.694722 -0.606212 101 101 101
-0.018922 -0.031316 0.177957 0.386575 0.816640 -0.428554 101 101 101
-0.018764 -0.031174 0.178389 0.458116 0.739240 -0.493613 101 101 101
-0.018636 -0.031022 0.178738 0.497878 0.587173 -0.638236 101 101 101
-0.018568 -0.030853 0.178924 0.565964 0.262323 -0.781582 103 103 103
-0.018549 -0.030671 0.178977 0.590333 -0.005653 -0.807140 104 104 104
-0.018558 -0.030480 0.178952 0.605646 -0.051711 -0.794052 105 105 105
-0.018584 -0.030285 0.178881 0.623576 -0.171044 -0.762821 105 105 105
-0.018615 -0.030089 0.178795 0.638292 -0.197483 -0.744032 106 106 106
-0.018643 -0.029894 0.178719 0.654999 -0.174061 -0.735309 107 107 107
-0.018665 -0.029701 0.178658 0.665448 -0.146300 -0.731967 107 107 107
-0.018683 -0.029509 0.178608 0.628690 -0.171222 -0.758572 108 108 108
-0.018699 -0.029317 0.178563 0.601790 -0.230012 -0.764816 108 108 108
-0.018726 -0.029123 0.178488 0.599692 -0.245404 -0.761673 107 107 107
-0.018767 -0.028925 0.178374 0.497237 -0.377630 -0.781122 108 108 108
-0.018824 -0.028723 0.178217 0.266382 -0.501856 -0.822910 108 108 108
-0.018889 -0.028520 0.178037 -0.028708 -0.536055 -0.843695 107 107 107
-0.018941 -0.028320 0.177895 -0.303607 -0.384955 -0.871569 108 108 108
-0.018968 -0.028127 0.177818 -0.399332 0.006458 -0.916784 108 108 108
-0.018955 -0.027943 0.177852 -0.334179 0.293420 -0.895672 108 108 108
-0.018909 -0.027766 0.177973 -0.006869 0.594466 -0.804091 109 109 109
-0.018836 -0.027596 0.178169 0.259895 0.671171 -0.694251 110 110 110
-0.018742 -0.027431 0.178422 0.420116 0.639543 -0.643807 110 110 110
-0.018651 -0.027264 0.178665 0.547995 0.531794 -0.645675 111 111 111
-0.018576 -0.027093 0.178865 0.587418 0.436729 -0.681328 111 111 111
-0.018517 -0.026918 0.179023 0.597956 0.334956 -0.728185 112 112 112
-0.018473 -0.026740 0.179139 0.602402 0.247362 -0.758896 112 112 112
-0.018438 -0.026559 0.179229 0.604039 0.155005 -0.781736 113 113 113
-0.018417 -0.026375 0.179284 0.620734 0.089454 -0.778901 113 113 113
-0.018411 -0.026188 0.179293 0.611014 -0.016245 -0.791453 114 114 114
-0.018419 -0.025998 0.179267 0.583840 -0.075023 -0.808395 114 114 114
-0.018433 -0.025806 0.179224 0.545585 -0.144133 -0.825568 114 114 114
-0.018453 -0.025614 0.179164 0.456413 -0.168996 -0.873572 114 114 114
-0.018477 -0.025421 0.179095 0.351520 -0.279637 -0.893441 115 115 115
-0.018513 -0.025225 0.178992 0.231084 -0.409626 -0.882500 116 116 116
-0.018556 -0.025028 0.178869 0.158827 -0.489374 -0.857489 117 117 117
-0.018603 -0.024831 0.178737 0.177166 -0.462103 -0.868949 116 116 116
-0.018636 -0.024636 0.178641 0.291458 -0.263455 -0.919589 116 116 116
-0.018640 -0.024447 0.178623 0.341134 0.013690 -0.939915 116 116 116
-0.018614 -0.024265 0.178689 0.430271 0.299662 -0.851510 117 117 117
-0.018566 -0.024085 0.178813 0.472809 0.420039 -0.774609 117 117 117
-0.018507 -0.023908 0.178966 0.519011 0.432258 -0.737415 117 117 117
-0.018451 -0.023730 0.179112 0.539631 0.419377 -0.730014 118 118 118
-0.018400 -0.023551 0.179244 0.573569 0.294239 -0.764488 118 118 118
-0.018362 -0.023369 0.179339 0.599988 0.224186 -0.767955 118 118 118
-0.018329 -0.023186 0.179422 0.616065 0.169128 -0.769324 118 118 118
-0.018303 -0.023002 0.179486 0.618255 0.120761 -0.776645 117 117 117
-0.018286 -0.022816 0.179526 0.647975 0.012174 -0.761564 117 117 117
-0.018288 -0.022627 0.179511 0.622739 -0.048515 -0.780924 117 117 117
-0.018309 -0.022434 0.179448 0.615041 -0.167932 -0.770405 117 117 117
-0.018339 -0.022241 0.179359 0.608402 -0.217110 -0.763355 117 117 117
-0.018365 -0.022048 0.179280 0.622363 -0.156089 -0.767008 117 117 117
-0.018383 -0.021856 0.179224 0.643182 -0.091314 -0.760249 117 117 117
-0.018381 -0.021668 0.179221 0.660379 -0.004612 -0.750919 117 117 117
-0.018367 -0.021481 0.179250 0.664857 0.050627 -0.745253 117 117 117
-0.018352 -0.021295 0.179282 0.659920 0.054896 -0.749328 116 116 116
-0.018341 -0.021108 0.179304 0.640244 0.031811 -0.767513 116 116 116
-0.018338 -0.020920 0.179304 0.605108 -0.004641 -0.796130 116 116 116
-0.018335 -0.020731 0.179303 0.564216 -0.027570 -0.825167 114 114 114
-0.018333 -0.020543 0.179301 0.529866 -0.048299 -0.846705 116 116 116
-0.018335 -0.020354 0.179285 0.527500 -0.063892 -0.847149 116 116 116
-0.018341 -0.020164 0.179261 0.554360 -0.104199 -0.825728 117 117 117
-0.018354 -0.019974 0.179216 0.599011 -0.108150 -0.793403 117 117 117
-0.018363 -0.019784 0.179182 0.620413 -0.044688 -0.783001 118 118 118
-0.018363 -0.019596 0.179175 0.681344 0.036751 -0.731040 118 118 118
-0.018349 -0.019409 0.179202 0.701490 0.115274 -0.703295 119 119 119
-0.018320 -0.019224 0.179272 0.729732 0.156456 -0.665592 118 118 118
-0.018279 -0.019040 0.179372 0.748078 0.161424 -0.643678 118 118 118
-0.018243 -0.018855 0.179461 0.758725 0.120746 -0.640122 118 118 118
-0.018215 -0.018670 0.179527 0.752326 0.027481 -0.658218 117 117 117
-0.018215 -0.018481 0.179518 0.709629 -0.083115 -0.699657 119 119 119
-0.018226 -0.018291 0.179478 0.678777 -0.161927 -0.716269 120 120 120
-0.018250 -0.018099 0.179402 0.660991 -0.210652 -0.720220 120 120 120
-0.018279 -0.017907 0.179314 0.661739 -0.227970 -0.714234 119 119 119
-0.018312 -0.017715 0.179215 0.645510 -0.270283 -0.714327 118 118 118
-0.018357 -0.017521 0.179083 0.631307 -0.329151 -0.702218 118 118 118
-0.018404 -0.017328 0.178943 0.621152 -0.296290 -0.725522 119 119 119
-0.018441 -0.017136 0.178832 0.621144 -0.214838 -0.753674 118 118 118
-0.018458 -0.016946 0.178777 0.626004 -0.031695 -0.779175 118 118 118
-0.018453 -0.016758 0.178780 0.621985 0.036798 -0.782164 116 116 116
-0.018434 -0.016571 0.178821 0.608752 0.100148 -0.787014 119 119 119
-0.018404 -0.016385 0.178891 0.620563 0.172203 -0.765015 117 117 117
-0.018367 -0.016200 0.178981 0.635519 0.221688 -0.739574 118 118 118
-0.018329 -0.016015 0.179074 0.656815 0.200965 -0.726778 119 119 119
-0.018297 -0.015829 0.179150 0.699042 0.126510 -0.703801 119 119 119
-0.018284 -0.015641 0.179173 0.716336 0.005692 -0.697732 119 119 119
-0.018286 -0.015452 0.179156 0.699708 -0.049326 -0.712724 118 118 118
-0.018293 -0.015263 0.179127 0.683135 -0.050056 -0.728575 119 119 119
-0.018292 -0.015074 0.179118 0.670571 0.002469 -0.741842 120 120 120
-0.018281 -0.014886 0.179139 0.647299 0.047547 -0.760752 120 120 120
-0.018262 -0.014699 0.179178 0.635812 0.043484 -0.770618 121 121 121
-0.018249 -0.014511 0.179202 0.636142 -0.004567 -0.771559 122 122 122
-0.018251 -0.014322 0.179184 0.624339 -0.057586 -0.779028 122 122 122
-0.018260 -0.014133 0.179150 0.611293 -0.061114 -0.789041 123 123 123
-0.018261 -0.013944 0.179136 0.603434 -0.004396 -0.797401 123 123 123
-0.018249 -0.013756 0.179156 0.582663 0.057622 -0.810669 123 123 123
-0.018232 -0.013568 0.179192 0.569159 0.089010 -0.817396 121 121 121
-0.018213 -0.013380 0.179233 0.566542 0.085056 -0.819631 123 123 123
-0.018201 -0.013192 0.179254 0.575774 0.063295 -0.815155 123 123 123
-0.018189 -0.013004 0.179273 0.577789 0.045680 -0.814907 123 123 123
-0.018179 -0.012815 0.179289 0.578107 0.028353 -0.815468 122 122 122
-0.018169 -0.012627 0.179304 0.577796 -0.019629 -0.815945 122 122 122
-0.018167 -0.012438 0.179300 0.588785 -0.053109 -0.806543 122 122 122
-0.018180 -0.012249 0.179252 0.609924 -0.159373 -0.776268 123 123 123
-0.018207 -0.012059 0.179166 0.618123 -0.249961 -0.745281 123 123 123
-0.018246 -0.011869 0.179049 0.618445 -0.290155 -0.730298 123 123 123
-0.018283 -0.011679 0.178938 0.616084 -0.245473 -0.748454 124 124 124
-0.018309 -0.011490 0.178854 0.604097 -0.184076 -0.775360 123 123 123
-0.018325 -0.011301 0.178799 0.584241 -0.127292 -0.801535 123 123 123
-0.018335 -0.011112 0.178762 0.575168 -0.096083 -0.812373 124 124 124
-0.018336 -0.010924 0.178747 0.571035 -0.047156 -0.819570 124 124 124
-0.018331 -0.010736 0.178749 0.580684 -0.012398 -0.814035 124 124 124
-0.018325 -0.010547 0.178754 0.589697 0.007864 -0.807586 124 124 124
-0.018317 -0.010359 0.178763 0.571269 -0.002325 -0.820760 123 123 123
-0.018309 -0.010170 0.178774 0.530260 -0.015796 -0.847688 121 121 121
-0.018307 -0.009982 0.178767 0.500141 -0.066615 -0.863378 120 120 120
-0.018304 -0.009793 0.178765 0.449905 -0.067366 -0.890532 121 121 121
-0.018298 -0.009605 0.178767 0.415209 -0.037710 -0.908944 122 122 122
-0.018294 -0.009416 0.178768 0.430503 -0.041514 -0.901634 122 122 122
-0.018299 -0.009228 0.178742 0.495678 -0.064033 -0.866143 121 121 121
-0.018311 -0.009040 0.178697 0.537971 -0.102305 -0.836732 122 122 122
-0.018324 -0.008851 0.178652 0.589546 -0.122075 -0.798457 121 121 121
-0.018334 -0.008663 0.178612 0.646248 -0.099313 -0.756638 121 121 121
-0.018341 -0.008475 0.178581 0.668578 -0.075856 -0.739763 122 122 122
-0.018340 -0.008286 0.178572 0.662172 -0.050236 -0.747666 121 121 121
-0.018340 -0.008098 0.178560 0.653486 -0.027415 -0.756442 121 121 121
-0.018335 -0.007909 0.178564 0.642962 0.003286 -0.765891 121 121 121
-0.018329 -0.007721 0.178569 0.626945 0.048089 -0.777578 123 123 123
-0.018314 -0.007532 0.178598 0.608488 0.096007 -0.787734 123 123 123
-0.018290 -0.007343 0.178650 0.588483 0.126129 -0.798610 124 124 124
-0.018265 -0.007154 0.178707 0.555769 0.044880 -0.830125 122 122 122
-0.018255 -0.006965 0.178724 0.524576 -0.015849 -0.851216 123 123 123
-0.018259 -0.006777 0.178702 0.454099 -0.184549 -0.871628 123 123 123
-0.018282 -0.006589 0.178626 0.395235 -0.364504 -0.843164 123 123 123
-0.018317 -0.006402 0.178522 0.312683 -0.417926 -0.852975 123 123 123
-0.018353 -0.006215 0.178412 0.314137 -0.317144 -0.894840 123 123 123
-0.018370 -0.006028 0.178353 0.397406 -0.125086 -0.909078 123 123 123
-0.018378 -0.005840 0.178322 0.491467 -0.020703 -0.870650 123 123 123
-0.018374 -0.005651 0.178321 0.554038 -0.001715 -0.832490 122 122 122
-0.018367 -0.005463 0.178328 0.648218 0.008437 -0.761408 123 123 123
-0.018361 -0.005274 0.178336 0.659140 0.001553 -0.752019 122 122 122
-0.018358 -0.005086 0.178332 0.665162 -0.013248 -0.746582 121 121 121
-0.018354 -0.004897 0.178333 0.666225 -0.004193 -0.745739 122 122 122
-0.018349 -0.004709 0.178336 0.638644 0.002961 -0.769497 121 121 121
-0.018341 -0.004520 0.178346 0.611181 -0.008870 -0.791441 120 120 120
-0.018337 -0.004331 0.178346 0.592590 -0.050039 -0.803949 121 121 121
-0.018340 -0.004143 0.178328 0.579781 -0.109637 -0.807362 122 122 122
-0.018351 -0.003955 0.178287 0.562448 -0.149657 -0.813176 123 123 123
-0.018370 -0.003769 0.178225 0.544972 -0.216739 -0.809956 124 124 124
-0.018393 -0.003582 0.178151 0.515628 -0.257755 -0.817123 124 124 124
-0.018416 -0.003396 0.178078 0.445353 -0.259102 -0.857045 125 125 125
-0.018443 -0.003210 0.177996 0.361219 -0.298959 -0.883258 125 125 125
-0.018472 -0.003024 0.177906 0.278171 -0.332120 -0.901286 125 125 125
-0.018500 -0.002839 0.177819 0.240518 -0.267208 -0.933141 126 126 126
-0.018514 -0.002652 0.177772 0.245280 -0.131193 -0.960534 127 127 127
-0.018506 -0.002463 0.177784 0.314140 0.045604 -0.948281 126 126 126
-0.018487 -0.002273 0.177826 0.412476 0.128826 -0.901813 126 126 126
-0.018462 -0.002083 0.177883 0.497103 0.143851 -0.855684 126 126 126
-0.018438 -0.001893 0.177938 0.565963 0.135403 -0.813236 125 125 125
-0.018417 -0.001702 0.177985 0.599186 0.102853 -0.793976 125 125 125
-0.018403 -0.001513 0.178015 0.630792 0.047574 -0.774492 126 126 126
-0.018394 -0.001323 0.178029 0.656464 -0.024581 -0.753957 126 126 126
-0.018396 -0.001135 0.178015 0.674361 -0.100688 -0.731505 126 126 126
-0.018415 -0.000949 0.177956 0.687204 -0.136292 -0.713565 127 127 127
-0.018435 -0.000763 0.177891 0.701525 -0.121302 -0.702245 127 127 127
-0.018447 -0.000576 0.177850 0.709741 -0.059902 -0.701912 126 126 126
-0.018446 -0.000388 0.177844 0.683760 0.001545 -0.729706 125 125 125
-0.018434 -0.000199 0.177866 0.657586 0.041774 -0.752221 125 125 125
-0.018419 -0.000008 0.177898 0.633788 0.021106 -0.773219 125 125 125
-0.018413 0.000181 0.177908 0.623893 -0.079993 -0.777405 125 125 125
-0.018427 0.000367 0.177860 0.570356 -0.150355 -0.807519 125 125 125
-0.018456 0.000552 0.177773 0.531888 -0.260738 -0.805674 124 124 124
-0.018489 0.000735 0.177676 0.497499 -0.295390 -0.815622 124 124 124
-0.018521 0.000919 0.177582 0.484877 -0.229407 -0.843959 125 125 125
-0.018536 0.001105 0.177532 0.470014 -0.107985 -0.876029 124 124 124
-0.018540 0.001293 0.177512 0.462169 -0.017613 -0.886617 124 124 124
-0.018534 0.001482 0.177522 0.471719 0.030366 -0.881226 123 123 123
-0.018524 0.001671 0.177540 0.452427 0.060719 -0.889732 123 123 123
-0.018515 0.001861 0.177559 0.420923 0.089507 -0.902670 123 123 123
-0.018500 0.002051 0.177593 0.396405 0.157862 -0.904402 123 123 123
-0.018476 0.002243 0.177649 0.395628 0.213534 -0.893242 122 122 122
-0.018448 0.002436 0.177718 0.426605 0.199780 -0.882098 120 120 120
-0.018425 0.002628 0.177775 0.489745 0.039976 -0.870949 119 119 119
-0.018419 0.002817 0.177786 0.530678 -0.114428 -0.839814 119 119 119
-0.018429 0.003004 0.177751 0.574749 -0.116583 -0.809983 120 120 120
-0.018454 0.003189 0.177677 0.603193 -0.194772 -0.773448 119 119 119
-0.018475 0.003373 0.177613 0.622595 -0.144098 -0.769163 119 119 119
-0.018486 0.003560 0.177577 0.614046 -0.070365 -0.786127 119 119 119
-0.018487 0.003748 0.177569 0.582788 0.003753 -0.812616 120 120 120
-0.018477 0.003938 0.177588 0.549311 0.040387 -0.834642 120 120 120
-0.018465 0.004129 0.177618 0.532645 0.077195 -0.842811 120 120 120
-0.018454 0.004320 0.177642 0.537099 0.059248 -0.841436 120 120 120
-0.018444 0.004510 0.177663 0.546860 0.023385 -0.836897 120 120 120
-0.018441 0.004699 0.177665 0.589057 -0.036407 -0.807271 120 120 120
-0.018449 0.004887 0.177638 0.616291 -0.086335 -0.782772 120 120 120
-0.018465 0.005072 0.177591 0.640614 -0.118093 -0.758728 120 120 120
-0.018479 0.005258 0.177549 0.630742 -0.119370 -0.766756 119 119 119
-0.018490 0.005445 0.177515 0.618658 -0.147920 -0.771610 118 118 118
-0.018499 0.005632 0.177485 0.594495 -0.172547 -0.785369 118 118 118
-0.018536 0.005813 0.177379 0.568241 -0.343452 -0.747758 118 118 118
-0.018609 0.005987 0.177178 0.564942 -0.557349 -0.608443 119 119 119
-0.018736 0.006149 0.176830 0.480436 -0.682547 -0.550737 119 119 119
-0.018901 0.006303 0.176378 0.514370 -0.729448 -0.450920 118 118 118
-0.019072 0.006455 0.175912 0.613816 -0.649373 -0.448937 118 118 118
-0.019197 0.006615 0.175570 0.755355 -0.305987 -0.579491 117 117 117
-0.019249 0.006791 0.175427 0.768888 -0.115309 -0.628900 115 115 115
-0.019223 0.006984 0.175494 0.683780 0.406759 -0.605799 115 115 115
-0.019135 0.007191 0.175729 0.597309 0.511583 -0.617660 115 115 115
-0.019006 0.007407 0.176078 0.560637 0.576417 -0.594500 117 117 117
-0.018874 0.007625 0.176434 0.497391 0.608699 -0.618133 117 117 117
-0.018755 0.007840 0.176753 0.412052 0.614889 -0.672402 116 116 116
-0.018669 0.008048 0.176985 0.313424 0.548184 -0.775409 116 116 116
-0.018609 0.008251 0.177146 0.305981 0.419397 -0.854682 116 116 116
-0.018575 0.008448 0.177237 0.348441 0.290390 -0.891214 118 118 118
-0.018554 0.008642 0.177292 0.411882 0.184376 -0.892389 118 118 118
-0.018545 0.008833 0.177316 0.462529 0.057716 -0.884723 120 120 120
-0.018548 0.009022 0.177308 0.523191 -0.037317 -0.851398 119 119 119
-0.018556 0.009209 0.177286 0.583866 -0.083909 -0.807502 119 119 119
-0.018574 0.009394 0.177236 0.635953 -0.080476 -0.767521 119 119 119
-0.018586 0.009580 0.177204 0.646473 -0.015631 -0.762776 118 118 118
-0.018579 0.009771 0.177222 0.690685 0.050549 -0.721387 119 119 119
