ply
format ascii 1.0
element vertex 699
property double x
property double y
property double z
property double nx
property double ny
property double nz
property uchar red
property uchar green
property uchar blue
end_header
0.010348 -0.017641 0.192663 0.263223 0.501623 -0.824068 102 102 102
0.010431 -0.017439 0.192832 0.155184 0.601247 -0.783849 101 101 101
0.010530 -0.017239 0.193034 0.063765 0.639097 -0.766479 99 99 99
0.010617 -0.017037 0.193213 0.012273 0.669712 -0.742520 99 99 99
0.010716 -0.016836 0.193416 -0.026144 0.679490 -0.733219 100 100 100
0.010804 -0.016633 0.193595 -0.032955 0.657741 -0.752523 102 102 102
0.010891 -0.016431 0.193773 -0.155810 0.664101 -0.731227 104 104 104
0.010981 -0.016228 0.193955 -0.151157 0.691875 -0.706017 105 105 105
0.011071 -0.016024 0.194140 -0.137924 0.675535 -0.724313 106 106 106
0.011147 -0.015820 0.194294 0.012196 0.615881 -0.787745 107 107 107
0.011229 -0.015615 0.194460 0.035371 0.625680 -0.779278 110 110 110
0.011307 -0.015410 0.194619 0.066495 0.612360 -0.787778 114 114 114
0.011386 -0.015205 0.194778 0.122540 0.577964 -0.806810 120 120 120
0.011460 -0.014999 0.194928 0.177196 0.555768 -0.812234 126 126 126
0.011541 -0.014793 0.195092 0.216686 0.518681 -0.827054 130 130 130
0.011609 -0.014587 0.195229 0.241409 0.481083 -0.842782 132 132 132
0.011681 -0.014380 0.195374 0.259255 0.395081 -0.881305 134 134 134
0.011726 -0.014172 0.195462 0.306080 0.341679 -0.888578 136 136 136
0.011769 -0.013963 0.195545 0.311663 0.319027 -0.895035 137 137 137
0.011815 -0.013754 0.195634 0.307455 0.269763 -0.912523 137 137 137
0.011855 -0.013545 0.195713 0.282691 0.216389 -0.934485 138 138 138
0.011884 -0.013336 0.195765 0.263928 0.124822 -0.956432 137 137 137
0.011901 -0.013126 0.195794 0.235970 0.013272 -0.971670 137 137 137
0.011904 -0.012915 0.195791 0.205887 0.002422 -0.978573 137 137 137
0.011915 -0.012705 0.195807 0.186950 0.061894 -0.980418 137 137 137
0.011924 -0.012494 0.195820 0.123370 0.063262 -0.990342 139 139 139
0.011936 -0.012284 0.195838 0.049955 0.047441 -0.997624 141 141 141
0.011951 -0.012073 0.195861 0.071441 0.123579 -0.989760 140 140 140
0.011961 -0.011863 0.195874 0.009301 0.105495 -0.994376 138 138 138
0.011979 -0.011652 0.195904 -0.012093 0.112398 -0.993590 135 135 135
0.012010 -0.011442 0.195962 -0.131254 0.276788 -0.951925 133 133 133
0.012040 -0.011232 0.196017 -0.208934 0.265615 -0.941167 133 133 133
0.012075 -0.011021 0.196083 -0.223692 0.372337 -0.900737 133 133 133
0.012116 -0.010811 0.196162 -0.275518 0.371349 -0.886674 133 133 133
0.012152 -0.010600 0.196231 -0.335572 0.349631 -0.874728 133 133 133
0.012196 -0.010389 0.196315 -0.400480 0.221835 -0.889047 134 134 134
0.012209 -0.010178 0.196334 -0.453145 0.073934 -0.888365 134 134 134
0.012221 -0.009967 0.196351 -0.479574 0.036132 -0.876757 133 133 133
0.012233 -0.009756 0.196369 -0.430469 -0.013037 -0.902511 131 131 131
0.012217 -0.009545 0.196327 -0.426546 -0.232913 -0.873962 129 129 129
0.012192 -0.009333 0.196266 -0.421780 -0.448900 -0.787776 123 123 123
0.012127 -0.009122 0.196120 -0.400625 -0.593392 -0.698130 116 116 116
0.012059 -0.008911 0.195969 -0.388167 -0.668067 -0.634833 106 106 106
0.011975 -0.008701 0.195782 -0.261283 -0.745410 -0.613266 94 94 94
0.011865 -0.008491 0.195541 -0.222291 -0.806143 -0.548379 85 85 85
0.011731 -0.008282 0.195249 -0.213734 -0.829829 -0.515463 79 79 79
0.011599 -0.008074 0.194962 -0.112194 -0.849702 -0.515188 76 76 76
0.011451 -0.007866 0.194641 -0.177610 -0.858137 -0.481723 74 74 74
0.011307 -0.007658 0.194329 -0.079063 -0.829420 -0.553002 74 74 74
0.011168 -0.007452 0.194026 -0.042692 -0.821447 -0.568685 75 75 75
0.010996 -0.007246 0.193654 0.095599 -0.796819 -0.596607 79 79 79
0.010869 -0.007040 0.193377 0.194466 -0.689879 -0.697317 83 83 83
0.010778 -0.006834 0.193176 0.313823 -0.554441 -0.770785 87 87 87
0.010705 -0.006627 0.193015 0.389932 -0.415094 -0.821979 91 91 91
0.010639 -0.006421 0.192867 0.406662 -0.443791 -0.798546 93 93 93
0.010575 -0.006215 0.192723 0.489607 -0.410376 -0.769335 95 95 95
0.010507 -0.006009 0.192573 0.539522 -0.390576 -0.745900 97 97 97
0.010353 -0.005599 0.192231 0.549748 -0.472976 -0.688528 101 101 101
0.010244 -0.005396 0.191991 0.551277 -0.533914 -0.641116 103 103 103
0.010115 -0.005194 0.191711 0.545369 -0.564751 -0.619377 103 103 103
0.009945 -0.004994 0.191344 0.528244 -0.620320 -0.579795 103 103 103
0.009753 -0.004796 0.190931 0.482776 -0.699696 -0.526643 101 101 101
0.009529 -0.004600 0.190448 0.495376 -0.702887 -0.510443 97 97 97
0.009259 -0.004407 0.189871 0.459624 -0.765850 -0.449688 93 93 93
0.008953 -0.004217 0.189217 0.437579 -0.785215 -0.438134 92 92 92
0.008662 -0.004028 0.188594 0.435824 -0.771911 -0.462830 97 97 97
0.008399 -0.003838 0.188030 0.434272 -0.775932 -0.457535 104 104 104
0.008144 -0.003649 0.187483 0.428176 -0.761642 -0.486381 111 111 111
0.007914 -0.003459 0.186990 0.428042 -0.743241 -0.514172 113 113 113
0.007721 -0.003268 0.186574 0.438021 -0.695341 -0.569771 114 114 114
0.007560 -0.003076 0.186227 0.437012 -0.643883 -0.628041 113 113 113
0.007433 -0.002882 0.185952 0.424217 -0.583438 -0.692560 114 114 114
0.007340 -0.002687 0.185749 0.374479 -0.519657 -0.767934 115 115 115
0.007264 -0.002490 0.185581 0.343765 -0.349133 -0.871740 118 118 118
0.007229 -0.002291 0.185501 0.264389 -0.170431 -0.949238 122 122 122
0.007218 -0.002091 0.185470 0.222674 -0.080530 -0.971561 125 125 125
0.007211 -0.001890 0.185448 0.149181 -0.045377 -0.987768 126 126 126
0.007207 -0.001689 0.185434 0.092580 -0.073929 -0.992957 126 126 126
0.007198 -0.001488 0.185408 0.082999 -0.204398 -0.975363 125 125 125
0.007181 -0.001288 0.185366 0.022731 -0.264396 -0.964146 126 126 126
0.007155 -0.001089 0.185304 -0.042392 -0.342537 -0.938547 127 127 127
0.007125 -0.000890 0.185234 -0.062840 -0.401721 -0.913604 127 127 127
0.007086 -0.000692 0.185146 -0.089847 -0.482165 -0.871461 123 123 123
0.007033 -0.000496 0.185029 -0.136260 -0.570884 -0.809645 120 120 120
0.006974 -0.000300 0.184897 -0.161950 -0.602872 -0.781228 120 120 120
0.006908 -0.000105 0.184751 -0.168012 -0.635932 -0.753235 119 119 119
0.006836 0.000089 0.184594 -0.224026 -0.666864 -0.710707 119 119 119
0.006763 0.000282 0.184433 -0.249763 -0.670471 -0.698633 119 119 119
0.006688 0.000476 0.184269 -0.257175 -0.682242 -0.684402 118 118 118
0.006614 0.000669 0.184108 -0.272883 -0.672746 -0.687712 116 116 116
0.006542 0.000862 0.183950 -0.273629 -0.669054 -0.691009 116 116 116
0.006471 0.001054 0.183794 -0.305947 -0.641085 -0.703851 116 116 116
0.006405 0.001247 0.183650 -0.285811 -0.631736 -0.720570 117 117 117
0.006339 0.001440 0.183505 -0.299000 -0.614311 -0.730220 119 119 119
0.006279 0.001633 0.183373 -0.305135 -0.590897 -0.746816 120 120 120
0.006221 0.001827 0.183245 -0.318737 -0.548719 -0.772861 121 121 121
0.006172 0.002021 0.183137 -0.320905 -0.512633 -0.796384 123 123 123
0.006124 0.002215 0.183031 -0.321015 -0.497072 -0.806144 125 125 125
0.006079 0.002409 0.182932 -0.314919 -0.496610 -0.808829 125 125 125
0.006033 0.002603 0.182828 -0.308721 -0.514104 -0.800242 125 125 125
0.005984 0.002796 0.182720 -0.305368 -0.525343 -0.794207 125 125 125
0.005936 0.002989 0.182615 -0.315678 -0.526273 -0.789546 126 126 126
0.005885 0.003182 0.182502 -0.309517 -0.526993 -0.791503 126 126 126
0.005836 0.003375 0.182395 -0.292293 -0.540206 -0.789140 126 126 126
0.005782 0.003567 0.182277 -0.285573 -0.567928 -0.771949 125 125 125
0.005726 0.003758 0.182155 -0.278329 -0.581440 -0.764500 125 125 125
0.005668 0.003949 0.182030 -0.274291 -0.584404 -0.763699 126 126 126
0.005610 0.004140 0.181903 -0.272258 -0.583911 -0.764803 128 128 128
0.005554 0.004331 0.181780 -0.272215 -0.574335 -0.772035 129 129 129
0.005499 0.004522 0.181662 -0.264566 -0.546879 -0.794310 127 127 127
0.005449 0.004713 0.181552 -0.269800 -0.507517 -0.818312 125 125 125
0.005404 0.004905 0.181455 -0.268114 -0.475789 -0.837699 126 126 126
0.005362 0.005097 0.181361 -0.264005 -0.465085 -0.844984 128 128 128
0.005319 0.005289 0.181269 -0.272529 -0.391903 -0.878715 130 130 130
0.005292 0.005483 0.181207 -0.266016 -0.317764 -0.910089 131 131 131
0.005265 0.005677 0.181149 -0.262140 -0.277047 -0.924407 134 134 134
0.005245 0.005872 0.181103 -0.245191 -0.244730 -0.938077 139 139 139
0.005223 0.006067 0.181055 -0.236651 -0.245140 -0.940161 143 143 143
0.005204 0.006262 0.181011 -0.222922 -0.236131 -0.945805 144 144 144
0.005184 0.006457 0.180967 -0.211275 -0.234114 -0.948975 141 141 141
0.005164 0.006652 0.180923 -0.200423 -0.235510 -0.950981 138 138 138
0.005144 0.006847 0.180879 -0.176030 -0.235195 -0.955875 133 133 133
0.005122 0.007041 0.180829 -0.169658 -0.259743 -0.950657 130 130 130
0.005095 0.007235 0.180771 -0.138311 -0.311700 -0.940060 130 130 130
0.005066 0.007428 0.180707 -0.121788 -0.312955 -0.941927 132 132 132
0.005039 0.007621 0.180649 -0.125223 -0.315082 -0.940767 136 136 136
0.005011 0.007814 0.180589 -0.124449 -0.300237 -0.945711 139 139 139
0.004983 0.008007 0.180528 -0.121619 -0.334231 -0.934611 144 144 144
0.004952 0.008200 0.180463 -0.135330 -0.333361 -0.933036 149 149 149
0.004889 0.008584 0.180329 -0.165605 -0.347930 -0.922778 153 153 153
0.004859 0.008777 0.180263 -0.201382 -0.332832 -0.921232 153 153 153
0.004828 0.008969 0.180198 -0.216274 -0.325895 -0.920336 153 153 153
0.004801 0.009162 0.180141 -0.263285 -0.240470 -0.934267 151 151 151
0.004784 0.009356 0.180104 -0.280020 -0.230383 -0.931940 148 148 148
0.004760 0.009550 0.180055 -0.281003 -0.237989 -0.929730 146 146 146
0.004745 0.009744 0.180023 -0.307543 -0.143663 -0.940627 145 145 145
0.004732 0.009940 0.179995 -0.311233 -0.069984 -0.947753 142 142 142
0.004728 0.010137 0.179987 -0.345190 -0.001486 -0.938532 141 141 141
0.004730 0.010335 0.179992 -0.345483 0.056090 -0.936747 139 139 139
0.004739 0.010535 0.180010 -0.345291 0.127206 -0.929835 134 134 134
0.004754 0.010735 0.180042 -0.339023 0.188358 -0.921729 130 130 130
0.004773 0.010937 0.180083 -0.331326 0.227310 -0.915726 124 124 124
0.004795 0.011140 0.180130 -0.322669 0.263583 -0.909070 122 122 122
0.004822 0.011344 0.180186 -0.311760 0.288498 -0.905304 125 125 125
0.004848 0.011548 0.180243 -0.303561 0.282616 -0.909933 127 127 127
0.004874 0.011751 0.180297 -0.295851 0.263359 -0.918213 128 128 128
0.004896 0.011955 0.180346 -0.288841 0.264683 -0.920062 127 127 127
0.015544 -0.040919 0.203290 0.169871 -0.193496 -0.966283 89 89 89
0.015523 -0.040696 0.203252 0.154560 -0.174553 -0.972441 90 90 90
0.015494 -0.040470 0.203197 0.121044 -0.266515 -0.956200 91 91 91
0.015455 -0.040241 0.203120 0.064225 -0.312112 -0.947872 92 92 92
0.015414 -0.040012 0.203039 0.036907 -0.375247 -0.926190 93 93 93
0.015361 -0.039779 0.202933 0.004358 -0.433407 -0.901188 94 94 94
0.015303 -0.039546 0.202815 -0.022259 -0.459813 -0.887737 94 94 94
0.015247 -0.039313 0.202702 -0.035464 -0.507014 -0.861208 93 93 93
0.015168 -0.039074 0.202538 -0.043831 -0.547426 -0.835706 93 93 93
0.015094 -0.038837 0.202387 -0.048226 -0.553906 -0.831181 94 94 94
0.015020 -0.038600 0.202234 -0.052893 -0.570459 -0.819621 94 94 94
0.014936 -0.038360 0.202062 -0.052408 -0.584794 -0.809487 95 95 95
0.014856 -0.038122 0.201896 -0.057947 -0.609828 -0.790413 95 95 95
0.014762 -0.037881 0.201701 -0.060917 -0.622042 -0.780610 95 95 95
0.014676 -0.037642 0.201523 -0.060607 -0.629442 -0.774681 96 96 96
0.014580 -0.037401 0.201323 -0.074645 -0.640708 -0.764148 98 98 98
0.014489 -0.037161 0.201133 -0.082709 -0.645146 -0.759569 98 98 98
0.014393 -0.036921 0.200932 -0.094804 -0.663953 -0.741740 98 98 98
0.014292 -0.036680 0.200723 -0.111780 -0.670597 -0.733352 98 98 98
0.014194 -0.036440 0.200517 -0.129462 -0.672767 -0.728440 98 98 98
0.014096 -0.036200 0.200314 -0.144217 -0.684956 -0.714169 98 98 98
0.013991 -0.035959 0.200093 -0.162623 -0.688999 -0.706282 98 98 98
0.013891 -0.035719 0.199883 -0.183308 -0.681115 -0.708859 97 97 97
0.013794 -0.035481 0.199680 -0.212604 -0.641431 -0.737134 96 96 96
0.013715 -0.035247 0.199515 -0.216676 -0.627544 -0.747824 95 95 95
0.013628 -0.035012 0.199334 -0.232013 -0.615471 -0.753237 94 94 94
0.013555 -0.034781 0.199181 -0.236439 -0.573031 -0.784686 94 94 94
0.013487 -0.034551 0.199039 -0.238976 -0.538282 -0.808172 92 92 92
0.013428 -0.034323 0.198915 -0.233687 -0.486303 -0.841962 91 91 91
0.013378 -0.034098 0.198811 -0.223818 -0.420014 -0.879485 90 90 90
0.013335 -0.033874 0.198721 -0.184782 -0.400227 -0.897594 91 91 91
0.013253 -0.033429 0.198550 -0.101261 -0.371043 -0.923078 93 93 93
0.013212 -0.033206 0.198465 -0.070071 -0.326280 -0.942673 95 95 95
0.013181 -0.032986 0.198398 -0.029098 -0.320515 -0.946797 96 96 96
0.013138 -0.032763 0.198308 0.020413 -0.354955 -0.934661 98 98 98
0.013095 -0.032541 0.198218 0.056513 -0.376161 -0.924829 99 99 99
0.013044 -0.032317 0.198110 0.092332 -0.400671 -0.911558 101 101 101
0.012993 -0.032093 0.198003 0.123639 -0.396167 -0.909816 104 104 104
0.012941 -0.031869 0.197893 0.147283 -0.407790 -0.901119 106 106 106
0.012885 -0.031645 0.197775 0.169568 -0.412365 -0.895099 109 109 109
0.012831 -0.031421 0.197660 0.187960 -0.394492 -0.899470 111 111 111
0.012781 -0.031198 0.197554 0.208524 -0.363620 -0.907909 114 114 114
0.012737 -0.030976 0.197460 0.217265 -0.331464 -0.918111 117 117 117
0.012695 -0.030756 0.197370 0.220969 -0.336491 -0.915394 118 118 118
0.012650 -0.030534 0.197274 0.224360 -0.275307 -0.934809 118 118 118
0.012625 -0.030317 0.197219 0.232769 -0.198263 -0.952108 119 119 119
0.012602 -0.030100 0.197169 0.229574 -0.167110 -0.958838 120 120 120
0.012584 -0.029885 0.197131 0.227803 -0.129670 -0.965035 120 120 120
0.012571 -0.029670 0.197101 0.222701 -0.089172 -0.970800 120 120 120
0.012563 -0.029457 0.197083 0.214656 -0.060295 -0.974827 121 121 121
0.012556 -0.029244 0.197068 0.204659 -0.003368 -0.978828 121 121 121
0.012561 -0.029032 0.197076 0.201807 0.051039 -0.978095 121 121 121
0.012568 -0.028822 0.197090 0.199586 0.066403 -0.977628 121 121 121
0.012578 -0.028611 0.197108 0.194128 0.081589 -0.977578 123 123 123
0.012589 -0.028401 0.197129 0.187203 0.117778 -0.975235 123 123 123
0.012607 -0.028192 0.197166 0.187490 0.160148 -0.969123 123 123 123
0.012627 -0.027984 0.197206 0.188631 0.197639 -0.961955 123 123 123
0.012656 -0.027777 0.197265 0.200845 0.233535 -0.951380 124 124 124
0.012685 -0.027569 0.197323 0.212888 0.264224 -0.940672 124 124 124
0.012723 -0.027364 0.197402 0.232817 0.310771 -0.921530 124 124 124
0.012766 -0.027158 0.197489 0.258444 0.323625 -0.910205 123 123 123
0.012810 -0.026953 0.197580 0.286641 0.335102 -0.897521 123 123 123
0.012859 -0.026749 0.197682 0.318881 0.352023 -0.879997 124 124 124
0.012912 -0.026545 0.197790 0.355757 0.341447 -0.869972 123 123 123
0.012963 -0.026340 0.197894 0.390346 0.317685 -0.864122 123 123 123
0.013012 -0.026135 0.197995 0.426541 0.288789 -0.857125 121 121 121
0.013059 -0.025929 0.198092 0.458933 0.272575 -0.845626 121 121 121
0.013109 -0.025724 0.198193 0.503024 0.285168 -0.815871 121 121 121
0.013160 -0.025519 0.198297 0.536291 0.269041 -0.800005 120 120 120
0.013207 -0.025313 0.198393 0.564695 0.254181 -0.785182 118 118 118
0.013260 -0.025107 0.198501 0.590947 0.252780 -0.766084 117 117 117
0.013318 -0.024902 0.198619 0.609077 0.267807 -0.746528 116 116 116
0.013444 -0.024493 0.198879 0.655649 0.264397 -0.707261 114 114 114
0.013509 -0.024288 0.199011 0.677296 0.265804 -0.686016 114 114 114
0.013587 -0.024085 0.199172 0.698642 0.239909 -0.674050 114 114 114
0.013654 -0.023880 0.199310 0.688114 0.241350 -0.684288 115 115 115
0.013727 -0.023676 0.199460 0.726805 0.170692 -0.665296 116 116 116
0.013784 -0.023469 0.199576 0.716249 0.141001 -0.683452 116 116 116
0.013825 -0.023260 0.199656 0.904212 -0.010068 -0.426966 114 114 114
0.013855 -0.023049 0.199716 0.765724 0.007848 -0.643121 113 113 113
0.013855 -0.022834 0.199711 0.904114 -0.010037 -0.427173 113 113 113
0.013804 -0.022614 0.199596 0.784550 -0.136076 -0.604950 113 113 113
0.013717 -0.022389 0.199407 0.904072 -0.010103 -0.427261 113 113 113
0.013594 -0.022160 0.199142 0.904084 -0.010070 -0.427236 111 111 111
0.013437 -0.021927 0.198804 0.767710 -0.316506 -0.557177 108 108 108
0.013270 -0.021695 0.198445 0.766271 -0.341919 -0.543985 105 105 105
0.013029 -0.021454 0.197931 0.745416 -0.372094 -0.553083 102 102 102
0.012772 -0.021213 0.197381 0.747442 -0.400241 -0.530225 99 99 99
0.012500 -0.020971 0.196799 0.731268 -0.437015 -0.523703 98 98 98
0.012229 -0.020730 0.196221 0.731708 -0.437887 -0.522358 97 97 97
0.011948 -0.020489 0.195620 0.727809 -0.444164 -0.522506 97 97 97
0.011674 -0.020250 0.195034 0.728239 -0.439726 -0.525652 100 100 100
0.011420 -0.020015 0.194491 0.732433 -0.418340 -0.537153 103 103 103
0.011201 -0.019784 0.194022 0.734271 -0.402337 -0.546783 108 108 108
0.011004 -0.019555 0.193597 0.738036 -0.376979 -0.559634 114 114 114
0.010843 -0.019331 0.193250 0.737756 -0.347225 -0.578921 117 117 117
0.010711 -0.019111 0.192966 0.725128 -0.299840 -0.619908 119 119 119
0.010611 -0.018893 0.192747 0.721244 -0.223311 -0.655698 117 117 117
0.010546 -0.018680 0.192604 0.690183 -0.160921 -0.705515 116 116 116
0.010523 -0.018470 0.192549 0.660878 -0.093969 -0.744587 112 112 112
0.010513 -0.018261 0.192522 0.614773 0.088796 -0.783690 109 109 109
0.010541 -0.018056 0.192574 0.542013 0.159092 -0.825174 108 108 108
0.010584 -0.017852 0.192658 0.470234 0.259050 -0.843666 107 107 107
0.010631 -0.017648 0.192752 0.299334 0.331033 -0.894883 106 106 106
0.010692 -0.017444 0.192873 0.129393 0.492108 -0.860864 106 106 106
0.010771 -0.017242 0.193035 -0.046888 0.573159 -0.818101 105 105 105
0.010846 -0.017039 0.193186 -0.162940 0.641359 -0.749740 103 103 103
0.010940 -0.016838 0.193377 -0.256548 0.670674 -0.695974 102 102 102
0.011025 -0.016635 0.193551 -0.317876 0.663614 -0.677179 101 101 101
0.011110 -0.016432 0.193724 -0.333183 0.670616 -0.662769 102 102 102
0.011285 -0.016026 0.194080 -0.350364 0.703515 -0.618314 103 103 103
0.011366 -0.015821 0.194244 -0.334261 0.667283 -0.665585 104 104 104
0.011452 -0.015617 0.194418 -0.295617 0.677653 -0.673348 104 104 104
0.011541 -0.015413 0.194600 -0.258357 0.677099 -0.689049 105 105 105
0.011632 -0.015208 0.194783 -0.241693 0.686477 -0.685809 107 107 107
0.011714 -0.015002 0.194950 -0.205081 0.677584 -0.706273 110 110 110
0.011798 -0.014797 0.195120 -0.177158 0.646361 -0.742181 115 115 115
0.011872 -0.014590 0.195269 -0.144803 0.613133 -0.776595 123 123 123
0.011938 -0.014383 0.195402 -0.134805 0.518240 -0.844544 128 128 128
0.011988 -0.014175 0.195500 -0.082028 0.400899 -0.912443 131 131 131
0.012080 -0.013758 0.195679 -0.032701 0.412584 -0.910332 135 135 135
0.012117 -0.013548 0.195749 -0.059001 0.267130 -0.961852 138 138 138
0.012142 -0.013338 0.195795 -0.071441 0.150604 -0.986010 140 140 140
0.012155 -0.013128 0.195813 -0.098849 -0.007781 -0.995072 140 140 140
0.012153 -0.012917 0.195802 -0.121697 -0.035725 -0.991924 140 140 140
0.012159 -0.012707 0.195808 -0.182444 -0.026569 -0.982857 140 140 140
0.012160 -0.012496 0.195802 -0.237837 -0.027166 -0.970925 139 139 139
0.012167 -0.012285 0.195808 -0.297941 0.007627 -0.954554 141 141 141
0.012172 -0.012074 0.195810 -0.330237 0.005329 -0.943883 142 142 142
0.012190 -0.011653 0.195834 -0.442852 0.198871 -0.874261 141 141 141
0.012214 -0.011443 0.195876 -0.527734 0.190608 -0.827747 138 138 138
0.012237 -0.011232 0.195916 -0.555443 0.258050 -0.790502 137 137 137
0.012267 -0.011022 0.195972 -0.598832 0.315775 -0.735994 135 135 135
0.012304 -0.010811 0.196042 -0.639399 0.314041 -0.701817 134 134 134
0.012334 -0.010601 0.196098 -0.678710 0.324475 -0.658838 134 134 134
0.012374 -0.010390 0.196175 -0.721975 0.208137 -0.659872 133 133 133
0.012384 -0.010179 0.196188 -0.749073 0.093351 -0.655878 133 133 133
0.012391 -0.009968 0.196194 -0.783247 0.060254 -0.618783 133 133 133
0.012401 -0.009756 0.196206 -0.784274 -0.035225 -0.619414 131 131 131
0.012379 -0.009545 0.196152 -0.776934 -0.230014 -0.586061 129 129 129
0.012350 -0.009334 0.196083 -0.735595 -0.420175 -0.531369 125 125 125
0.012281 -0.009123 0.195929 -0.685725 -0.554714 -0.471247 118 118 118
0.012208 -0.008912 0.195766 -0.650511 -0.607260 -0.456149 109 109 109
0.012119 -0.008702 0.195572 -0.508934 -0.702732 -0.497146 98 98 98
0.012011 -0.008492 0.195335 -0.496138 -0.740367 -0.453546 88 88 88
0.011905 -0.008283 0.195102 -0.426101 -0.795116 -0.431543 79 79 79
0.011778 -0.008075 0.194827 -0.311803 -0.857898 -0.408399 74 74 74
0.011628 -0.007867 0.194501 -0.381959 -0.812052 -0.441224 73 73 73
0.011494 -0.007659 0.194210 -0.241064 -0.809241 -0.535739 73 73 73
0.011384 -0.007452 0.193969 -0.208420 -0.791705 -0.574251 75 75 75
0.011263 -0.007245 0.193708 -0.026871 -0.761640 -0.647443 78 78 78
0.011169 -0.007039 0.193501 0.142936 -0.646761 -0.749179 82 82 82
0.011078 -0.006832 0.193301 0.255104 -0.510317 -0.821279 87 87 87
0.011021 -0.006625 0.193171 0.332178 -0.388916 -0.859303 92 92 92
0.010967 -0.006418 0.193051 0.395026 -0.357159 -0.846399 97 97 97
0.010912 -0.006211 0.192927 0.457383 -0.358300 -0.813893 103 103 103
0.010808 -0.005799 0.192691 0.509825 -0.389478 -0.767063 103 103 103
0.010725 -0.005594 0.192507 0.526067 -0.456708 -0.717406 110 110 110
0.010626 -0.005390 0.192292 0.513165 -0.544640 -0.663347 113 113 113
0.010508 -0.005187 0.192033 0.520972 -0.568500 -0.636708 115 115 115
0.010344 -0.004986 0.191679 0.503419 -0.630650 -0.590635 116 116 116
0.010162 -0.004787 0.191288 0.438467 -0.729855 -0.524461 117 117 117
0.009931 -0.004591 0.190793 0.469969 -0.717451 -0.514191 116 116 116
0.009396 -0.004206 0.189648 0.403727 -0.810978 -0.423462 110 110 110
0.009102 -0.004016 0.189022 0.407653 -0.804302 -0.432338 103 103 103
0.008826 -0.003826 0.188431 0.404330 -0.796205 -0.450083 102 102 102
0.008554 -0.003637 0.187851 0.405367 -0.784246 -0.469718 108 108 108
0.008302 -0.003449 0.187312 0.421642 -0.752595 -0.505785 118 118 118
0.008096 -0.003258 0.186870 0.424765 -0.729554 -0.536028 124 124 124
0.007920 -0.003066 0.186492 0.450180 -0.664286 -0.596709 128 128 128
0.007778 -0.002873 0.186185 0.449089 -0.609279 -0.653527 129 129 129
0.007669 -0.002678 0.185949 0.442993 -0.536986 -0.717916 128 128 128
0.007578 -0.002483 0.185750 0.418610 -0.392476 -0.818980 129 129 129
0.007502 -0.002085 0.185577 0.324700 -0.155678 -0.932917 134 134 134
0.007481 -0.001885 0.185526 0.267661 -0.141942 -0.953001 136 136 136
0.007468 -0.001684 0.185492 0.212557 -0.148545 -0.965792 138 138 138
0.007450 -0.001484 0.185446 0.156486 -0.211747 -0.964715 137 137 137
0.007424 -0.001285 0.185386 0.102996 -0.287907 -0.952104 136 136 136
0.007391 -0.001086 0.185309 0.052760 -0.344445 -0.937323 136 136 136
0.007354 -0.000888 0.185225 0.012361 -0.400592 -0.916173 136 136 136
0.007310 -0.000691 0.185125 -0.022464 -0.491146 -0.870788 135 135 135
0.007253 -0.000494 0.184999 -0.059676 -0.567820 -0.820987 132 132 132
0.007188 -0.000299 0.184857 -0.093022 -0.614211 -0.783640 129 129 129
0.007118 -0.000105 0.184703 -0.109511 -0.649947 -0.752048 125 125 125
0.006966 0.000283 0.184371 -0.160744 -0.690222 -0.705518 122 122 122
0.006890 0.000476 0.184204 -0.198553 -0.678784 -0.706986 121 121 121
0.006815 0.000669 0.184040 -0.209082 -0.679289 -0.703457 120 120 120
0.006670 0.001054 0.183723 -0.247361 -0.651373 -0.717304 118 118 118
0.006604 0.001247 0.183580 -0.260639 -0.634268 -0.727854 119 119 119
0.006538 0.001440 0.183436 -0.270837 -0.617847 -0.738182 120 120 120
0.006478 0.001633 0.183304 -0.276665 -0.594950 -0.754646 118 118 118
0.006420 0.001827 0.183177 -0.290714 -0.552882 -0.780902 118 118 118
0.006372 0.002021 0.183070 -0.298978 -0.511414 -0.805647 119 119 119
0.006325 0.002215 0.182966 -0.300313 -0.495563 -0.815003 119 119 119
0.006280 0.002409 0.182867 -0.301083 -0.491634 -0.817096 120 120 120
0.006233 0.002603 0.182764 -0.296313 -0.511425 -0.806624 120 120 120
0.006184 0.002796 0.182655 -0.292159 -0.525513 -0.799049 118 118 118
0.006085 0.003182 0.182437 -0.293759 -0.524383 -0.799205 118 118 118
0.006035 0.003375 0.182328 -0.293504 -0.537324 -0.790656 118 118 118
0.005981 0.003567 0.182211 -0.287337 -0.564309 -0.773947 120 120 120
0.005925 0.003758 0.182088 -0.283237 -0.578297 -0.765081 120 120 120
0.005867 0.003949 0.181962 -0.281449 -0.581714 -0.763148 120 120 120
0.005809 0.004140 0.181837 -0.278494 -0.577792 -0.767202 122 122 122
0.005753 0.004331 0.181714 -0.272884 -0.567269 -0.777008 124 124 124
0.005649 0.004714 0.181489 -0.271196 -0.498641 -0.823292 124 124 124
0.005605 0.004906 0.181393 -0.270351 -0.467223 -0.841792 123 123 123
0.005563 0.005098 0.181301 -0.262441 -0.453138 -0.851934 125 125 125
0.005522 0.005290 0.181211 -0.255522 -0.382923 -0.887738 126 126 126
0.005495 0.005484 0.181152 -0.250491 -0.299182 -0.920730 129 129 129
0.005470 0.005679 0.181096 -0.230583 -0.263057 -0.936820 131 131 131
0.005451 0.005874 0.181053 -0.220891 -0.225334 -0.948911 134 134 134
0.005431 0.006069 0.181008 -0.189718 -0.227490 -0.955121 137 137 137
0.005413 0.006264 0.180968 -0.177805 -0.210195 -0.961355 142 142 142
0.005394 0.006459 0.180927 -0.149258 -0.216358 -0.964838 145 145 145
0.005377 0.006655 0.180887 -0.132747 -0.202761 -0.970189 144 144 144
0.005338 0.007044 0.180801 -0.090057 -0.263536 -0.960437 139 139 139
0.005314 0.007238 0.180748 -0.076142 -0.288508 -0.954445 135 135 135
0.005286 0.007432 0.180687 -0.062512 -0.299925 -0.951913 133 133 133
0.005231 0.007819 0.180570 -0.064201 -0.317260 -0.946163 135 135 135
0.005201 0.008011 0.180506 -0.077756 -0.330733 -0.940516 139 139 139
0.005170 0.008204 0.180438 -0.082680 -0.366315 -0.926810 146 146 146
0.005135 0.008395 0.180364 -0.110407 -0.363038 -0.925210 152 152 152
0.005070 0.008779 0.180226 -0.154678 -0.363085 -0.918827 156 156 156
0.005037 0.008971 0.180156 -0.190377 -0.337068 -0.922031 158 158 158
0.005008 0.009164 0.180095 -0.227105 -0.272206 -0.935055 159 159 159
0.004987 0.009358 0.180050 -0.247547 -0.257185 -0.934118 158 158 158
0.004962 0.009551 0.179997 -0.275548 -0.232993 -0.932624 154 154 154
0.004945 0.009745 0.179962 -0.284562 -0.181977 -0.941227 149 149 149
0.004926 0.010137 0.179922 -0.308135 -0.013496 -0.951247 147 147 147
0.004927 0.010335 0.179925 -0.315562 0.054318 -0.947349 143 143 143
0.004935 0.010535 0.179942 -0.316662 0.128887 -0.939741 139 139 139
0.004950 0.010736 0.179974 -0.312407 0.191871 -0.930369 135 135 135
0.004970 0.010938 0.180015 -0.306672 0.232818 -0.922902 130 130 130
0.004993 0.011140 0.180064 -0.300015 0.269260 -0.915145 125 125 125
0.005020 0.011344 0.180121 -0.291429 0.293824 -0.910350 124 124 124
0.005047 0.011548 0.180179 -0.286041 0.290302 -0.913184 126 126 126
0.005073 0.011752 0.180235 -0.280544 0.271662 -0.920595 128 128 128
0.005097 0.011956 0.180285 -0.269063 0.272705 -0.923709 128 128 128
0.015826 -0.040941 0.203349 0.262556 -0.251128 -0.931664 90 90 90
0.015797 -0.040715 0.203295 0.226676 -0.203328 -0.952510 92 92 92
0.015762 -0.040487 0.203228 0.171960 -0.278228 -0.944997 93 93 93
0.015718 -0.040256 0.203140 0.116173 -0.331321 -0.936339 93 93 93
0.015670 -0.040025 0.203045 0.068100 -0.387056 -0.919538 94 94 94
0.015614 -0.039792 0.202932 0.023233 -0.440807 -0.897301 93 93 93
0.015553 -0.039557 0.202808 -0.017740 -0.469210 -0.882909 93 93 93
0.015488 -0.039322 0.202676 -0.033784 -0.514642 -0.856739 94 94 94
0.015418 -0.039085 0.202532 -0.048056 -0.554784 -0.830605 95 95 95
0.015341 -0.038847 0.202375 -0.055148 -0.556589 -0.828956 95 95 95
0.015265 -0.038610 0.202219 -0.060067 -0.575896 -0.815313 95 95 95
0.015184 -0.038371 0.202052 -0.062534 -0.587669 -0.806681 96 96 96
0.015104 -0.038133 0.201887 -0.064809 -0.609947 -0.789788 96 96 96
0.015011 -0.037892 0.201694 -0.060803 -0.625245 -0.778057 97 97 97
0.014925 -0.037653 0.201517 -0.065537 -0.632461 -0.771814 97 97 97
0.014829 -0.037412 0.201317 -0.071887 -0.649084 -0.757312 98 98 98
0.014736 -0.037172 0.201123 -0.080117 -0.653761 -0.752448 99 99 99
0.014638 -0.036931 0.200920 -0.091658 -0.672872 -0.734059 97 97 97
0.014535 -0.036689 0.200706 -0.100940 -0.682941 -0.723466 98 98 98
0.014434 -0.036448 0.200494 -0.115921 -0.687029 -0.717324 99 99 99
0.014330 -0.036207 0.200278 -0.133945 -0.695379 -0.706050 98 98 98
0.014224 -0.035966 0.200057 -0.149594 -0.698220 -0.700079 95 95 95
0.014121 -0.035725 0.199842 -0.163321 -0.690277 -0.704872 94 94 94
0.014020 -0.035486 0.199631 -0.186665 -0.649461 -0.737127 93 93 93
0.013940 -0.035252 0.199464 -0.191056 -0.630015 -0.752714 92 92 92
0.013851 -0.035017 0.199278 -0.199485 -0.614822 -0.763020 91 91 91
0.013777 -0.034785 0.199123 -0.201700 -0.567661 -0.798172 90 90 90
0.013709 -0.034555 0.198981 -0.198243 -0.527126 -0.826340 89 89 89
0.013648 -0.034327 0.198854 -0.190571 -0.467543 -0.863184 88 88 88
0.013600 -0.034102 0.198756 -0.175455 -0.396044 -0.901313 89 89 89
0.013562 -0.033880 0.198676 -0.151874 -0.357304 -0.921557 89 89 89
0.013522 -0.033657 0.198594 -0.111569 -0.344794 -0.932025 92 92 92
0.013487 -0.033436 0.198520 -0.060050 -0.310023 -0.948831 94 94 94
0.013451 -0.033214 0.198445 -0.035608 -0.298409 -0.953774 95 95 95
0.013423 -0.032994 0.198387 -0.011315 -0.286034 -0.958153 96 96 96
0.013387 -0.032773 0.198310 0.027142 -0.320736 -0.946780 97 97 97
0.013349 -0.032552 0.198232 0.063019 -0.345676 -0.936235 98 98 98
0.013303 -0.032329 0.198135 0.110154 -0.385327 -0.916182 101 101 101
0.013258 -0.032106 0.198039 0.128608 -0.373467 -0.918685 103 103 103
0.013211 -0.031883 0.197940 0.151685 -0.387176 -0.909443 106 106 106
0.013158 -0.031659 0.197829 0.182286 -0.400626 -0.897926 109 109 109
0.013108 -0.031436 0.197723 0.201323 -0.382862 -0.901602 111 111 111
0.013059 -0.031213 0.197619 0.220622 -0.346547 -0.911719 113 113 113
0.013018 -0.030992 0.197532 0.237798 -0.319758 -0.917173 114 114 114
0.012978 -0.030772 0.197446 0.245463 -0.328818 -0.911936 116 116 116
0.012933 -0.030550 0.197350 0.252771 -0.267846 -0.929712 116 116 116
0.012908 -0.030333 0.197296 0.265392 -0.196176 -0.943971 117 117 117
0.012884 -0.030116 0.197244 0.265519 -0.177983 -0.947535 118 118 118
0.012866 -0.029900 0.197205 0.270614 -0.134567 -0.953236 119 119 119
0.012851 -0.029685 0.197174 0.265069 -0.095355 -0.959503 119 119 119
0.012842 -0.029471 0.197152 0.259613 -0.070990 -0.963100 119 119 119
0.012834 -0.029257 0.197133 0.251427 -0.015114 -0.967758 120 120 120
0.012837 -0.029046 0.197139 0.247416 0.041310 -0.968028 122 122 122
0.012843 -0.028835 0.197151 0.241275 0.063067 -0.968405 122 122 122
0.012852 -0.028624 0.197167 0.239867 0.069575 -0.968309 122 122 122
0.012863 -0.028414 0.197187 0.233404 0.108323 -0.966327 124 124 124
0.012881 -0.028205 0.197225 0.232675 0.155855 -0.959985 124 124 124
0.012903 -0.027997 0.197268 0.234483 0.202808 -0.950730 123 123 123
0.012934 -0.027790 0.197332 0.247207 0.244664 -0.937565 124 124 124
0.012967 -0.027583 0.197398 0.260802 0.280005 -0.923894 124 124 124
0.013009 -0.027378 0.197485 0.281489 0.331019 -0.900661 124 124 124
0.013057 -0.027173 0.197584 0.307517 0.349627 -0.884983 125 125 125
0.013108 -0.026969 0.197688 0.339800 0.365343 -0.866638 125 125 125
0.013165 -0.026766 0.197807 0.372430 0.379173 -0.847068 125 125 125
0.013227 -0.026563 0.197934 0.413177 0.395316 -0.820372 125 125 125
0.013286 -0.026359 0.198056 0.446627 0.382471 -0.808851 124 124 124
0.013346 -0.026156 0.198178 0.480923 0.361416 -0.798806 124 124 124
0.013403 -0.025951 0.198296 0.513667 0.347428 -0.784499 123 123 123
0.013465 -0.025748 0.198423 0.542830 0.336624 -0.769428 122 122 122
0.013527 -0.025543 0.198550 0.570567 0.320016 -0.756335 122 122 122
0.013587 -0.025339 0.198673 0.586438 0.297572 -0.753353 121 121 121
0.013654 -0.025135 0.198811 0.607868 0.296992 -0.736405 121 121 121
0.013728 -0.024932 0.198962 0.628819 0.295402 -0.719253 120 120 120
0.013805 -0.024729 0.199121 0.654776 0.293757 -0.696401 121 121 121
0.013889 -0.024527 0.199294 0.672832 0.293677 -0.679008 122 122 122
0.013976 -0.024325 0.199473 0.689935 0.291660 -0.662513 122 122 122
0.014077 -0.024124 0.199683 0.684752 0.317935 -0.655769 122 122 122
0.014174 -0.023923 0.199883 0.702420 0.302813 -0.644136 122 122 122
0.014266 -0.023720 0.200073 0.716895 0.284354 -0.636557 122 122 122
0.014361 -0.023518 0.200268 0.718742 0.251420 -0.648227 121 121 121
0.014434 -0.023312 0.200417 0.714899 0.166190 -0.679191 120 120 120
0.014494 -0.023104 0.200539 0.751571 0.073876 -0.655502 119 119 119
0.014506 -0.022890 0.200560 0.903750 -0.010196 -0.427940 119 119 119
0.014503 -0.022675 0.200548 0.903750 -0.010196 -0.427939 118 118 118
0.014456 -0.022454 0.200444 0.903741 -0.010206 -0.427958 116 116 116
0.014374 -0.022229 0.200266 0.731078 -0.173319 -0.659913 114 114 114
0.014273 -0.022002 0.200046 0.903610 -0.010442 -0.428228 112 112 112
0.014010 -0.021756 0.199487 0.786106 -0.299436 -0.540718 109 109 109
0.013834 -0.021522 0.199109 0.761194 -0.334171 -0.555800 106 106 106
0.013636 -0.021286 0.198685 0.740618 -0.347617 -0.575020 102 102 102
0.013310 -0.021037 0.197991 0.714716 -0.420721 -0.558725 99 99 99
0.013153 -0.020807 0.197653 0.732820 -0.424338 -0.531895 98 98 98
0.012740 -0.020551 0.196776 0.736798 -0.433658 -0.518718 98 98 98
0.012450 -0.020310 0.196157 0.734193 -0.434124 -0.522012 101 101 101
0.012186 -0.020072 0.195593 0.725132 -0.446604 -0.524145 105 105 105
0.011925 -0.019836 0.195038 0.736903 -0.417345 -0.531787 109 109 109
0.011710 -0.019604 0.194576 0.735635 -0.402993 -0.544462 113 113 113
0.011495 -0.019374 0.194116 0.732435 -0.392245 -0.556492 114 114 114
0.011329 -0.019150 0.193761 0.727734 -0.370704 -0.577046 114 114 114
0.011181 -0.018927 0.193441 0.698179 -0.352243 -0.623274 112 112 112
0.011067 -0.018709 0.193195 0.698321 -0.290919 -0.653999 110 110 110
0.010987 -0.018493 0.193020 0.686858 -0.212862 -0.694921 107 107 107
0.010932 -0.018280 0.192896 0.592943 -0.222585 -0.773870 106 106 106
0.010910 -0.018070 0.192843 0.564392 -0.102456 -0.819124 105 105 105
0.010910 -0.017862 0.192838 0.457235 -0.020201 -0.889116 105 105 105
0.010926 -0.017655 0.192864 0.284715 0.104692 -0.952878 103 103 103
0.010955 -0.017449 0.192918 0.125362 0.249463 -0.960236 101 101 101
0.011005 -0.017245 0.193018 -0.148698 0.403189 -0.902955 100 100 100
0.011059 -0.017041 0.193126 -0.331118 0.537900 -0.775257 100 100 100
0.011133 -0.016838 0.193273 -0.478082 0.583926 -0.656101 99 99 99
0.011205 -0.016634 0.193420 -0.500875 0.613547 -0.610479 98 98 98
0.011282 -0.016431 0.193574 -0.555692 0.632724 -0.539321 98 98 98
0.011363 -0.016227 0.193739 -0.581189 0.648984 -0.490957 98 98 98
0.011451 -0.016024 0.193918 -0.603735 0.638184 -0.477729 99 99 99
0.011534 -0.015820 0.194084 -0.580206 0.651725 -0.488482 100 100 100
0.011623 -0.015616 0.194265 -0.561438 0.666799 -0.490067 101 101 101
0.011712 -0.015411 0.194447 -0.549520 0.675683 -0.491407 102 102 102
0.011801 -0.015207 0.194627 -0.526585 0.677424 -0.513620 105 105 105
0.011892 -0.015002 0.194812 -0.506280 0.671096 -0.541582 109 109 109
0.011979 -0.014796 0.194988 -0.485028 0.654580 -0.579890 114 114 114
0.012060 -0.014590 0.195150 -0.457861 0.628785 -0.628484 118 118 118
0.012139 -0.014383 0.195310 -0.452539 0.541581 -0.708448 121 121 121
0.012192 -0.014175 0.195414 -0.477133 0.506584 -0.718134 123 123 123
0.012245 -0.013967 0.195519 -0.465774 0.463400 -0.753867 125 125 125
0.012296 -0.013759 0.195619 -0.451888 0.406262 -0.794197 130 130 130
0.012334 -0.013549 0.195691 -0.400958 0.289905 -0.869015 132 132 132
0.012363 -0.013340 0.195744 -0.459085 0.158543 -0.874131 134 134 134
0.012376 -0.013129 0.195764 -0.414423 0.047799 -0.908828 135 135 135
0.012370 -0.012918 0.195744 -0.458558 -0.052311 -0.887123 136 136 136
0.012373 -0.012707 0.195742 -0.512244 -0.059528 -0.856775 137 137 137
0.012368 -0.012496 0.195724 -0.537005 -0.013611 -0.843469 138 138 138
0.012369 -0.012286 0.195718 -0.580698 0.023801 -0.813771 138 138 138
0.012372 -0.012075 0.195716 -0.669255 -0.031963 -0.742345 138 138 138
0.012367 -0.011864 0.195698 -0.728949 -0.006582 -0.684536 135 135 135
0.012374 -0.011653 0.195707 -0.778176 0.053737 -0.625743 134 134 134
0.012393 -0.011443 0.195737 -0.785715 0.145213 -0.601303 133 133 133
0.012410 -0.011232 0.195765 -0.788921 0.208584 -0.578010 131 131 131
0.012431 -0.011022 0.195802 -0.827624 0.217317 -0.517506 130 130 130
0.012458 -0.010811 0.195852 -0.856442 0.221003 -0.466546 128 128 128
0.012484 -0.010601 0.195897 -0.855648 0.264199 -0.445045 127 127 127
0.012515 -0.010390 0.195955 -0.901546 0.152113 -0.405064 125 125 125
0.012522 -0.010179 0.195962 -0.916582 0.018642 -0.399412 123 123 123
0.012524 -0.009968 0.195958 -0.918151 0.055947 -0.392261 121 121 121
0.012535 -0.009757 0.195972 -0.919094 -0.037456 -0.392254 116 116 116
0.012514 -0.009546 0.195920 -0.905816 -0.211749 -0.366959 109 109 109
0.012480 -0.009335 0.195840 -0.865181 -0.361252 -0.347791 100 100 100
0.012417 -0.009124 0.195701 -0.844427 -0.430450 -0.318836 91 91 91
0.012351 -0.008913 0.195553 -0.782420 -0.514126 -0.351416 84 84 84
0.012266 -0.008703 0.195366 -0.642508 -0.665084 -0.380587 79 79 79
0.012168 -0.008493 0.195151 -0.585426 -0.704285 -0.401570 77 77 77
0.012084 -0.008284 0.194966 -0.525954 -0.751484 -0.398301 78 78 78
0.011873 -0.008076 0.194513 -0.448432 -0.778617 -0.438936 80 80 80
0.011810 -0.007868 0.194372 -0.335224 -0.750523 -0.569508 83 83 83
0.011694 -0.007660 0.194120 -0.165897 -0.753852 -0.635756 87 87 87
0.011592 -0.007452 0.193898 -0.086257 -0.754390 -0.650734 91 91 91
0.011498 -0.007245 0.193691 -0.059367 -0.730052 -0.680809 95 95 95
0.011414 -0.007038 0.193506 0.092937 -0.613606 -0.784124 100 100 100
0.011348 -0.006831 0.193359 0.206183 -0.496804 -0.843015 104 104 104
0.011306 -0.006623 0.193263 0.262308 -0.333507 -0.905520 106 106 106
0.011269 -0.006416 0.193177 0.332267 -0.298736 -0.894626 109 109 109
0.011228 -0.006209 0.193082 0.388445 -0.296842 -0.872350 112 112 112
0.011187 -0.006001 0.192988 0.419640 -0.288503 -0.860621 114 114 114
0.011149 -0.005794 0.192901 0.452990 -0.332046 -0.827373 115 115 115
0.011080 -0.005589 0.192748 0.463334 -0.423967 -0.778186 116 116 116
0.010994 -0.005384 0.192558 0.474622 -0.505409 -0.720621 116 116 116
0.010887 -0.005180 0.192325 0.467742 -0.585170 -0.662415 116 116 116
0.010737 -0.004979 0.192001 0.447386 -0.660731 -0.602728 115 115 115
0.010557 -0.004779 0.191615 0.377515 -0.764419 -0.522634 115 115 115
0.010335 -0.004582 0.191140 0.398462 -0.769406 -0.499241 112 112 112
0.010084 -0.004388 0.190604 0.374215 -0.797580 -0.473106 106 106 106
0.009797 -0.004196 0.189991 0.364390 -0.833408 -0.415513 102 102 102
0.009497 -0.004006 0.189353 0.357369 -0.825808 -0.436267 103 103 103
0.009206 -0.003817 0.188733 0.374487 -0.815695 -0.440909 110 110 110
0.008936 -0.003628 0.188156 0.379438 -0.805201 -0.455717 117 117 117
0.008683 -0.003438 0.187618 0.394978 -0.786112 -0.475415 121 121 121
0.008464 -0.003248 0.187150 0.405503 -0.750947 -0.521197 124 124 124
0.008273 -0.003057 0.186741 0.430671 -0.694544 -0.576308 125 125 125
0.008115 -0.002865 0.186402 0.435907 -0.641971 -0.630760 125 125 125
0.007991 -0.002671 0.186133 0.438144 -0.572426 -0.693079 126 126 126
0.007887 -0.002476 0.185908 0.439603 -0.474795 -0.762442 129 129 129
0.007824 -0.002278 0.185769 0.393456 -0.333634 -0.856668 131 131 131
0.007787 -0.002079 0.185682 0.356473 -0.267989 -0.895047 132 132 132
0.007754 -0.001880 0.185608 0.312246 -0.216206 -0.925071 133 133 133
0.007733 -0.001680 0.185556 0.266374 -0.210563 -0.940589 134 134 134
0.007707 -0.001480 0.185495 0.215265 -0.266985 -0.939351 133 133 133
0.007676 -0.001281 0.185423 0.195975 -0.329809 -0.923482 133 133 133
0.007637 -0.001083 0.185335 0.134479 -0.393281 -0.909530 131 131 131
0.007597 -0.000885 0.185244 0.085712 -0.428626 -0.899407 130 130 130
0.007548 -0.000687 0.185136 0.050530 -0.512038 -0.857475 128 128 128
0.007487 -0.000492 0.185001 0.033646 -0.576582 -0.816346 126 126 126
0.007418 -0.000297 0.184848 -0.017196 -0.635327 -0.772052 124 124 124
0.007343 -0.000102 0.184684 -0.082934 -0.661791 -0.745087 124 124 124
0.007263 0.000091 0.184511 -0.074721 -0.685804 -0.723941 123 123 123
0.007182 0.000284 0.184334 -0.112018 -0.698813 -0.706479 122 122 122
0.007101 0.000477 0.184159 -0.143221 -0.687648 -0.711778 123 123 123
0.007022 0.000669 0.183987 -0.147386 -0.694374 -0.704359 122 122 122
0.006944 0.000862 0.183817 -0.198195 -0.681788 -0.704191 122 122 122
0.006870 0.001054 0.183656 -0.216435 -0.656912 -0.722234 123 123 123
0.006803 0.001247 0.183509 -0.233282 -0.634163 -0.737168 123 123 123
0.006735 0.001440 0.183362 -0.249127 -0.617063 -0.746437 123 123 123
0.006674 0.001633 0.183228 -0.261769 -0.592404 -0.761928 124 124 124
0.006615 0.001826 0.183099 -0.280743 -0.548782 -0.787415 124 124 124
0.006566 0.002020 0.182992 -0.289590 -0.509398 -0.810340 125 125 125
0.006519 0.002214 0.182887 -0.297255 -0.493128 -0.817596 126 126 126
0.006474 0.002408 0.182789 -0.297830 -0.493409 -0.817218 126 126 126
0.006428 0.002602 0.182686 -0.296850 -0.515074 -0.804101 125 125 125
0.006378 0.002795 0.182577 -0.288256 -0.532126 -0.796084 124 124 124
0.006329 0.002989 0.182469 -0.295861 -0.527243 -0.796543 124 124 124
0.006279 0.003181 0.182360 -0.296210 -0.522954 -0.799236 126 126 126
0.006229 0.003374 0.182251 -0.300935 -0.543116 -0.783877 127 127 127
0.006176 0.003566 0.182134 -0.297637 -0.568784 -0.766744 127 127 127
0.006119 0.003758 0.182011 -0.296742 -0.580805 -0.758030 128 128 128
0.006061 0.003949 0.181886 -0.295555 -0.583564 -0.756373 128 128 128
0.006004 0.004140 0.181762 -0.290133 -0.575695 -0.764459 128 128 128
0.005948 0.004331 0.181641 -0.276980 -0.562353 -0.779128 128 128 128
0.005896 0.004522 0.181527 -0.283965 -0.532482 -0.797388 127 127 127
0.005847 0.004714 0.181421 -0.270595 -0.490409 -0.828419 128 128 128
0.005804 0.004906 0.181327 -0.267695 -0.458926 -0.847187 129 129 129
0.005763 0.005098 0.181238 -0.249878 -0.444743 -0.860096 131 131 131
0.005724 0.005291 0.181152 -0.244486 -0.364188 -0.898662 133 133 133
0.005699 0.005485 0.181097 -0.222887 -0.286182 -0.931891 134 134 134
0.005676 0.005680 0.181046 -0.203793 -0.239739 -0.949207 136 136 136
0.005659 0.005875 0.181008 -0.187562 -0.197208 -0.962252 140 140 140
0.005642 0.006071 0.180969 -0.147337 -0.199225 -0.968814 143 143 143
0.005627 0.006267 0.180934 -0.130493 -0.180426 -0.974894 145 145 145
0.005610 0.006462 0.180897 -0.092821 -0.189432 -0.977497 144 144 144
0.005595 0.006658 0.180863 -0.076502 -0.174888 -0.981612 143 143 143
0.005579 0.006854 0.180828 -0.043582 -0.195612 -0.979712 138 138 138
0.005560 0.007049 0.180786 -0.019806 -0.221279 -0.975009 135 135 135
0.005537 0.007243 0.180736 -0.005045 -0.270644 -0.962666 132 132 132
0.005510 0.007437 0.180677 0.005298 -0.290523 -0.956853 134 134 134
0.005483 0.007630 0.180618 0.008300 -0.294009 -0.955766 135 135 135
0.005455 0.007823 0.180557 0.001506 -0.310420 -0.950598 138 138 138
0.005424 0.008016 0.180491 -0.008800 -0.338581 -0.940896 143 143 143
0.005390 0.008208 0.180419 -0.032189 -0.374270 -0.926761 149 149 149
0.005352 0.008399 0.180339 -0.048055 -0.383063 -0.922471 154 154 154
0.005318 0.008591 0.180265 -0.072006 -0.376297 -0.923697 157 157 157
0.005282 0.008782 0.180189 -0.106261 -0.385109 -0.916733 159 159 159
0.005247 0.008974 0.180115 -0.147736 -0.354027 -0.923493 159 159 159
0.005214 0.009166 0.180047 -0.164363 -0.312960 -0.935436 157 157 157
0.005190 0.009359 0.179996 -0.200878 -0.289588 -0.935835 154 154 154
0.005163 0.009552 0.179940 -0.239414 -0.246040 -0.939226 152 152 152
0.005145 0.009746 0.179900 -0.233690 -0.204500 -0.950562 151 151 151
0.005130 0.009941 0.179869 -0.262163 -0.116600 -0.957954 148 148 148
0.005125 0.010138 0.179858 -0.259998 -0.016231 -0.965473 146 146 146
0.005126 0.010336 0.179861 -0.275727 0.046817 -0.960095 142 142 142
0.005134 0.010535 0.179878 -0.276129 0.125188 -0.952933 138 138 138
0.005149 0.010736 0.179910 -0.271577 0.190092 -0.943457 133 133 133
0.005169 0.010938 0.179953 -0.266416 0.233539 -0.935137 130 130 130
0.005192 0.011141 0.180002 -0.260806 0.270357 -0.926762 129 129 129
0.005220 0.011345 0.180060 -0.254945 0.294064 -0.921157 132 132 132
0.005248 0.011549 0.180119 -0.252450 0.292657 -0.922291 135 135 135
0.005275 0.011753 0.180177 -0.249509 0.274554 -0.928636 138 138 138
0.005298 0.011957 0.180227 -0.253661 0.281515 -0.925422 141 141 141
0.016146 -0.040973 0.203489 0.242869 -0.290645 -0.925495 87 87 87
0.016107 -0.040744 0.203413 0.242869 -0.290645 -0.925495 89 89 89
0.016062 -0.040513 0.203324 0.186888 -0.351927 -0.917181 92 92 92
0.016007 -0.040279 0.203215 0.133798 -0.402310 -0.905673 93 93 93
0.015951 -0.040045 0.203102 0.082892 -0.445542 -0.891415 93 93 93
0.015885 -0.039809 0.202969 0.037356 -0.485006 -0.873713 93 93 93
0.015818 -0.039573 0.202833 -0.000051 -0.510104 -0.860113 93 93 93
0.015747 -0.039336 0.202688 -0.029614 -0.533096 -0.845536 93 93 93
0.015673 -0.039098 0.202536 -0.052146 -0.561105 -0.826100 94 94 94
0.015592 -0.038859 0.202370 -0.064750 -0.573561 -0.816600 96 96 96
0.015515 -0.038621 0.202212 -0.080107 -0.584563 -0.807384 96 96 96
0.015431 -0.038382 0.202040 -0.087631 -0.596109 -0.798107 96 96 96
0.015350 -0.038143 0.201874 -0.099253 -0.614159 -0.782916 95 95 95
0.015257 -0.037902 0.201682 -0.094347 -0.633713 -0.767793 94 94 94
0.015169 -0.037663 0.201500 -0.101337 -0.642337 -0.759694 96 96 96
0.015071 -0.037421 0.201296 -0.104797 -0.660919 -0.743105 97 97 97
0.014975 -0.037180 0.201097 -0.113024 -0.665680 -0.737629 97 97 97
0.014875 -0.036939 0.200889 -0.121347 -0.682941 -0.720324 97 97 97
0.014769 -0.036696 0.200671 -0.131889 -0.690987 -0.710733 98 98 98
0.014665 -0.036454 0.200454 -0.139448 -0.694337 -0.706011 97 97 97
0.014559 -0.036213 0.200233 -0.144441 -0.700425 -0.698958 97 97 97
0.014452 -0.035971 0.200010 -0.150469 -0.700588 -0.697521 97 97 97
0.014347 -0.035730 0.199790 -0.156463 -0.694181 -0.702589 95 95 95
0.014245 -0.035491 0.199577 -0.171467 -0.651129 -0.739344 94 94 94
0.014164 -0.035257 0.199409 -0.162782 -0.628841 -0.760303 92 92 92
0.014075 -0.035021 0.199225 -0.165133 -0.608909 -0.775861 92 92 92
0.014003 -0.034790 0.199074 -0.157386 -0.558306 -0.814570 92 92 92
0.013936 -0.034560 0.198936 -0.143998 -0.512235 -0.846688 90 90 90
0.013881 -0.034333 0.198822 -0.130798 -0.449948 -0.883425 90 90 90
0.013835 -0.034109 0.198725 -0.117078 -0.372556 -0.920595 90 90 90
0.013799 -0.033887 0.198652 -0.106972 -0.324134 -0.939944 90 90 90
0.013765 -0.033666 0.198580 -0.081749 -0.305826 -0.948571 92 92 92
0.013733 -0.033445 0.198515 -0.055656 -0.277014 -0.959253 93 93 93
0.013703 -0.033225 0.198452 -0.012215 -0.237365 -0.971344 96 96 96
0.013678 -0.033006 0.198401 0.017152 -0.240701 -0.970448 99 99 99
0.013646 -0.032785 0.198335 0.049832 -0.281904 -0.958148 102 102 102
0.013614 -0.032565 0.198267 0.069634 -0.301975 -0.950769 103 103 103
0.013574 -0.032343 0.198182 0.099810 -0.337231 -0.936116 105 105 105
0.013531 -0.032121 0.198092 0.126656 -0.340896 -0.931530 108 108 108
0.013488 -0.031898 0.198002 0.146802 -0.357029 -0.922485 110 110 110
0.013439 -0.031675 0.197898 0.170163 -0.369223 -0.913629 114 114 114
0.013391 -0.031452 0.197798 0.192453 -0.354390 -0.915079 116 116 116
0.013345 -0.031230 0.197701 0.217780 -0.321885 -0.921391 116 116 116
0.013307 -0.031010 0.197619 0.236806 -0.293699 -0.926101 118 118 118
0.013268 -0.030789 0.197536 0.247496 -0.308728 -0.918386 118 118 118
0.013224 -0.030568 0.197443 0.268335 -0.262938 -0.926747 119 119 119
0.013199 -0.030350 0.197390 0.280866 -0.193019 -0.940137 120 120 120
0.013175 -0.030133 0.197338 0.287096 -0.172385 -0.942263 121 121 121
0.013142 -0.029702 0.197267 0.291473 -0.105613 -0.950731 122 122 122
0.013131 -0.029488 0.197242 0.286525 -0.085007 -0.954294 122 122 122
0.013122 -0.029273 0.197221 0.280439 -0.031672 -0.959349 122 122 122
0.013123 -0.029061 0.197222 0.277459 0.025408 -0.960401 122 122 122
0.013128 -0.028850 0.197231 0.271652 0.048511 -0.961172 122 122 122
0.013135 -0.028639 0.197244 0.269057 0.062022 -0.961125 122 122 122
0.013144 -0.028428 0.197261 0.263350 0.102244 -0.959267 123 123 123
0.013162 -0.028219 0.197296 0.264403 0.155392 -0.951811 123 123 123
0.013184 -0.028010 0.197341 0.268622 0.209748 -0.940132 125 125 125
0.013217 -0.027804 0.197408 0.283856 0.256829 -0.923832 124 124 124
0.013253 -0.027597 0.197481 0.299664 0.295530 -0.907118 123 123 123
0.013299 -0.027393 0.197577 0.321067 0.349279 -0.880295 124 124 124
