ply
format ascii 1.0
element vertex 700
property double x
property double y
property double z
property double nx
property double ny
property double nz
property uchar red
property uchar green
property uchar blue
end_header
0.014057 -0.037157 0.201282 -0.115855 -0.451218 -0.884861 96 96 96
0.014005 -0.036928 0.201176 -0.130454 -0.374134 -0.918153 97 97 97
0.013973 -0.036704 0.201111 -0.129727 -0.266888 -0.954956 97 97 97
0.013952 -0.036483 0.201069 -0.138952 -0.223234 -0.964810 97 97 97
0.013928 -0.036261 0.201021 -0.143674 -0.323734 -0.935176 97 97 97
0.013882 -0.036034 0.200926 -0.150657 -0.518197 -0.841887 98 98 98
0.013801 -0.035799 0.200755 -0.157561 -0.638159 -0.753610 98 98 98
0.013703 -0.035560 0.200549 -0.166395 -0.687698 -0.706671 97 97 97
0.013592 -0.035318 0.200316 -0.156683 -0.720802 -0.675200 95 95 95
0.013474 -0.035074 0.200066 -0.164389 -0.735080 -0.657749 95 95 95
0.013356 -0.034831 0.199816 -0.219632 -0.738293 -0.637718 94 94 94
0.013241 -0.034590 0.199573 -0.330192 -0.716571 -0.614409 94 94 94
0.013141 -0.034352 0.199362 -0.400052 -0.655244 -0.640791 93 93 93
0.013071 -0.034122 0.199214 -0.583899 -0.487250 -0.649346 92 92 92
0.013037 -0.033900 0.199143 -0.694916 -0.297717 -0.654566 90 90 90
0.013015 -0.033681 0.199098 -0.674371 -0.312830 -0.668851 91 91 91
0.012975 -0.033459 0.199015 -0.556571 -0.458311 -0.692950 92 92 92
0.012914 -0.033231 0.198884 -0.442242 -0.570117 -0.692379 93 93 93
0.012821 -0.032997 0.198689 -0.319743 -0.693067 -0.646083 94 94 94
0.012713 -0.032760 0.198458 -0.304418 -0.718336 -0.625558 96 96 96
0.012609 -0.032524 0.198238 -0.315400 -0.684959 -0.656776 98 98 98
0.012525 -0.032293 0.198059 -0.324574 -0.563708 -0.759530 99 99 99
0.012476 -0.032070 0.197956 -0.307221 -0.361788 -0.880184 102 102 102
0.012451 -0.031852 0.197903 -0.308215 -0.173210 -0.935415 103 103 103
0.012446 -0.031638 0.197891 -0.255393 -0.035824 -0.966173 105 105 105
0.012445 -0.031425 0.197890 -0.221442 -0.041596 -0.974286 108 108 108
0.012435 -0.031210 0.197867 -0.188068 -0.134792 -0.972863 111 111 111
0.012411 -0.030993 0.197816 -0.135353 -0.246511 -0.959641 114 114 114
0.012374 -0.030773 0.197736 -0.058875 -0.307505 -0.949723 116 116 116
0.012334 -0.030552 0.197650 0.022553 -0.284055 -0.958543 116 116 116
0.012303 -0.030334 0.197583 0.086899 -0.236681 -0.967694 116 116 116
0.012278 -0.030117 0.197529 0.109908 -0.173196 -0.978736 116 116 116
0.012265 -0.029902 0.197500 0.086688 -0.106806 -0.990494 117 117 117
0.012255 -0.029688 0.197477 0.040442 -0.086632 -0.995419 118 118 118
0.012246 -0.029474 0.197457 -0.002002 -0.075820 -0.997120 119 119 119
0.012238 -0.029260 0.197439 -0.013087 -0.038294 -0.999181 120 120 120
0.012238 -0.029048 0.197436 -0.004671 0.010710 -0.999932 119 119 119
0.012246 -0.028837 0.197451 0.049260 0.059568 -0.997008 120 120 120
0.012257 -0.028627 0.197473 0.122437 0.079240 -0.989308 120 120 120
0.012270 -0.028417 0.197499 0.191242 0.084861 -0.977868 121 121 121
0.012282 -0.028207 0.197522 0.233689 0.081968 -0.968850 121 121 121
0.012293 -0.027996 0.197543 0.224763 0.078009 -0.971286 120 120 120
0.012306 -0.027786 0.197567 0.173476 0.054154 -0.983348 120 120 120
0.012314 -0.027575 0.197583 0.124522 0.067963 -0.989887 121 121 121
0.012328 -0.027365 0.197609 0.108988 0.153299 -0.982151 121 121 121
0.012351 -0.027157 0.197655 0.118463 0.238813 -0.963813 121 121 121
0.012389 -0.026951 0.197733 0.197275 0.316695 -0.927786 122 122 122
0.012438 -0.026746 0.197834 0.304243 0.346611 -0.887298 121 121 121
0.012492 -0.026542 0.197946 0.393903 0.315488 -0.863312 121 121 121
0.012536 -0.026337 0.198036 0.435773 0.186085 -0.880610 120 120 120
0.012573 -0.025917 0.198107 0.360630 0.004162 -0.932699 118 118 118
0.012575 -0.025704 0.198109 0.239080 0.063908 -0.968895 117 117 117
0.012582 -0.025493 0.198119 0.215958 0.111611 -0.970003 117 117 117
0.012608 -0.025284 0.198171 0.222106 0.195927 -0.955134 117 117 117
0.012641 -0.025076 0.198237 0.311473 0.206842 -0.927470 117 117 117
0.012678 -0.024868 0.198311 0.426576 0.174939 -0.887372 117 117 117
0.012710 -0.024660 0.198376 0.504237 0.151933 -0.850095 115 115 115
0.012751 -0.024239 0.198453 0.628722 0.069147 -0.774550 113 113 113
0.012798 -0.023819 0.198544 0.679448 0.110630 -0.725336 114 114 114
0.012836 -0.023611 0.198619 0.707316 0.174813 -0.684942 116 116 116
0.012888 -0.023404 0.198727 0.708361 0.136926 -0.692442 117 117 117
0.012958 -0.023200 0.198869 0.719546 0.126999 -0.682734 119 119 119
0.012998 -0.022991 0.198949 0.777796 0.041600 -0.627138 119 119 119
0.012963 -0.022773 0.198871 0.853239 -0.145855 -0.500708 117 117 117
0.012817 -0.022542 0.198556 0.904679 -0.010149 -0.425972 114 114 114
0.012513 -0.022292 0.197903 0.693713 -0.424964 -0.581522 111 111 111
0.012069 -0.022026 0.196954 0.702323 -0.509667 -0.496973 107 107 107
0.011559 -0.021755 0.195865 0.786848 -0.472713 -0.396752 104 104 104
0.011059 -0.021486 0.194797 0.695463 -0.462516 -0.549919 101 101 101
0.010599 -0.021224 0.193813 0.684229 -0.496572 -0.534085 100 100 100
0.010206 -0.020972 0.192972 0.666733 -0.541920 -0.511654 98 98 98
0.009863 -0.020726 0.192237 0.650154 -0.567480 -0.505238 99 99 99
0.009560 -0.020487 0.191588 0.618954 -0.526332 -0.582983 102 102 102
0.009166 -0.020033 0.190739 0.633104 -0.308590 -0.709896 106 106 106
0.009091 -0.019819 0.190573 0.631054 -0.191818 -0.751649 112 112 112
0.009095 -0.019408 0.190570 0.597361 0.055829 -0.800027 118 118 118
0.009121 -0.019205 0.190619 0.605630 0.165844 -0.778273 120 120 120
0.009146 -0.019001 0.190665 0.604545 0.309907 -0.733814 119 119 119
0.009208 -0.018801 0.190790 0.551549 0.342241 -0.760700 114 114 114
0.009538 -0.018418 0.191479 0.255972 0.737176 -0.625340 109 109 109
0.009818 -0.018235 0.192068 -0.010833 0.898474 -0.438893 107 107 107
0.010146 -0.018056 0.192757 -0.054453 0.948534 -0.311957 107 107 107
0.010453 -0.017873 0.193405 -0.049552 0.964022 -0.261161 106 106 106
0.010679 -0.017682 0.193878 -0.338688 0.883199 -0.324422 106 106 106
0.010818 -0.017484 0.194166 -0.284002 0.599448 -0.748335 106 106 106
0.010871 -0.017279 0.194272 -0.460062 0.238781 -0.855177 106 106 106
0.010879 -0.017070 0.194282 -0.516538 0.051278 -0.854727 105 105 105
0.010903 -0.016863 0.194325 -0.485803 0.462129 -0.741912 105 105 105
0.010974 -0.016659 0.194470 -0.386076 0.713509 -0.584680 105 105 105
0.011084 -0.016457 0.194697 -0.254072 0.763471 -0.593767 107 107 107
0.011192 -0.016254 0.194918 -0.007377 0.646159 -0.763167 109 109 109
0.011290 -0.016050 0.195119 0.065400 0.762698 -0.643440 111 111 111
0.011391 -0.015847 0.195328 0.155416 0.757633 -0.633907 112 112 112
0.011519 -0.015644 0.195592 0.155162 0.807974 -0.568421 111 111 111
0.011690 -0.015443 0.195947 0.128185 0.840354 -0.526662 112 112 112
0.011864 -0.015242 0.196310 0.317488 0.640478 -0.699278 116 116 116
0.012002 -0.015038 0.196596 0.357978 0.435660 -0.825864 120 120 120
0.012065 -0.014830 0.196723 -0.047322 0.151136 -0.987380 124 124 124
0.012055 -0.014618 0.196692 0.254805 -0.107648 -0.960982 127 127 127
0.012015 -0.014405 0.196599 -0.246373 -0.327652 -0.912110 127 127 127
0.011969 -0.014191 0.196496 0.118773 -0.241974 -0.962986 126 126 126
0.011943 -0.013979 0.196432 0.483755 -0.070838 -0.872332 126 126 126
0.011949 -0.013768 0.196436 0.530767 0.079142 -0.843814 127 127 127
0.011973 -0.013558 0.196481 0.548771 0.192416 -0.813527 127 127 127
0.012035 -0.013349 0.196604 0.555434 0.226596 -0.800092 127 127 127
0.012102 -0.013139 0.196739 0.555616 0.287847 -0.780022 127 127 127
0.012185 -0.012931 0.196907 0.163212 0.425805 -0.889973 126 126 126
0.012251 -0.012721 0.197040 0.293630 0.234079 -0.926816 126 126 126
0.012238 -0.012297 0.196996 0.628501 -0.057899 -0.775651 127 127 127
0.012186 -0.012084 0.196877 0.652854 -0.096828 -0.751270 128 128 128
0.012152 -0.011871 0.196798 0.660547 0.027836 -0.750268 127 127 127
0.012180 -0.011660 0.196849 0.648053 0.091497 -0.756079 125 125 125
0.012302 -0.011239 0.197092 0.606885 0.176713 -0.774895 122 122 122
0.012353 -0.011028 0.197193 0.577199 0.162966 -0.800177 120 120 120
0.012420 -0.010605 0.197319 0.431047 0.232266 -0.871924 119 119 119
0.012467 -0.010393 0.197410 0.426184 0.308490 -0.850412 120 120 120
0.012528 -0.010181 0.197532 0.542341 0.264300 -0.797503 121 121 121
0.012597 -0.009970 0.197670 0.517627 0.317146 -0.794657 122 122 122
0.012670 -0.009757 0.197816 0.338619 0.424759 -0.839593 123 123 123
0.012756 -0.009545 0.197991 0.130482 0.491813 -0.860868 123 123 123
0.012833 -0.009332 0.198146 0.020262 0.253779 -0.967050 123 123 123
0.012888 -0.009119 0.198255 0.055699 0.186874 -0.980804 121 121 121
0.012855 -0.008906 0.198176 -0.474293 -0.564640 -0.675446 118 118 118
0.012667 -0.008694 0.197770 -0.392919 -0.860072 -0.325408 115 115 115
0.012330 -0.008485 0.197047 -0.299831 -0.952373 -0.055562 103 103 103
0.011304 -0.008074 0.194854 -0.276287 -0.954413 -0.112964 88 88 88
0.010747 -0.007873 0.193663 -0.215137 -0.973029 -0.083245 81 81 81
0.010279 -0.007672 0.192663 -0.725395 -0.051127 -0.686432 76 76 76
0.009920 -0.007471 0.191893 0.018350 -0.948963 -0.314852 73 73 73
0.009694 -0.007268 0.191407 -0.167590 -0.909654 -0.380057 71 71 71
0.009713 -0.007061 0.191439 -0.004510 0.969315 -0.245782 71 71 71
0.010243 -0.006634 0.192546 0.221214 0.849366 -0.479209 77 77 77
0.010832 -0.006200 0.193780 0.616606 0.534777 -0.577764 82 82 82
0.011024 -0.005985 0.194178 0.667295 0.336295 -0.664547 84 84 84
0.011114 -0.005773 0.194361 0.664802 0.256605 -0.701564 86 86 86
0.011137 -0.005562 0.194402 0.785335 0.107477 -0.609670 87 87 87
0.011139 -0.005353 0.194399 0.785335 0.107477 -0.609670 88 88 88
0.011134 -0.005144 0.194381 0.984097 -0.069231 -0.163584 89 89 89
0.011041 -0.004938 0.194175 0.753925 -0.358495 -0.550525 90 90 90
0.010258 -0.004556 0.192500 0.604813 -0.674295 -0.423706 90 90 90
0.009492 -0.004386 0.190868 0.507304 -0.793357 -0.336493 89 89 89
0.008612 -0.004224 0.188997 0.329147 -0.893142 -0.306529 88 88 88
0.007883 -0.004058 0.187444 0.319353 -0.907567 -0.272646 89 89 89
0.007203 -0.003691 0.185989 -0.242048 -0.587340 -0.772298 98 98 98
0.007140 -0.003493 0.185849 -0.754882 -0.157017 -0.636788 104 104 104
0.007141 -0.003291 0.185843 -0.803829 -0.061069 -0.591718 109 109 109
0.007113 -0.003091 0.185777 -0.854560 -0.245198 -0.457826 112 112 112
0.007077 -0.002892 0.185695 -0.830318 -0.308515 -0.464102 113 113 113
0.007037 -0.002693 0.185602 -0.786510 -0.246853 -0.566097 114 114 114
0.007016 -0.002493 0.185552 -0.707925 -0.130841 -0.694062 115 115 115
0.007004 -0.002293 0.185518 -0.580977 -0.141458 -0.801533 117 117 117
0.006986 -0.002093 0.185473 -0.446183 -0.171999 -0.878258 119 119 119
0.006970 -0.001893 0.185433 -0.358773 -0.132859 -0.923921 121 121 121
0.006961 -0.001692 0.185408 -0.364191 -0.108758 -0.924952 123 123 123
0.006961 -0.001491 0.185400 -0.328795 0.039060 -0.943593 124 124 124
0.006985 -0.001086 0.185440 -0.323205 0.064330 -0.944140 124 124 124
0.006992 -0.000884 0.185447 -0.317238 -0.066532 -0.946009 124 124 124
0.006940 -0.000486 0.185326 -0.287726 -0.447665 -0.846646 123 123 123
0.006898 -0.000289 0.185230 -0.319436 -0.458292 -0.829415 121 121 121
0.006855 -0.000091 0.185133 -0.354021 -0.452585 -0.818435 118 118 118
0.006814 0.000106 0.185040 -0.366288 -0.478010 -0.798336 116 116 116
0.006714 0.000498 0.184815 -0.385880 -0.630792 -0.673200 113 113 113
0.006562 0.000884 0.184483 -0.361130 -0.710058 -0.604486 109 109 109
0.006408 0.001269 0.184147 -0.256174 -0.695311 -0.671504 109 109 109
0.006331 0.001461 0.183977 -0.184212 -0.684923 -0.704944 110 110 110
0.006245 0.001652 0.183791 -0.062845 -0.687939 -0.723042 112 112 112
0.006163 0.001842 0.183611 0.029887 -0.646899 -0.761990 114 114 114
0.006095 0.002035 0.183464 0.014452 -0.544076 -0.838912 116 116 116
0.006046 0.002229 0.183355 -0.047932 -0.440840 -0.896305 118 118 118
0.006008 0.002424 0.183270 -0.122445 -0.412915 -0.902501 120 120 120
0.005970 0.002619 0.183183 -0.154590 -0.477728 -0.864800 121 121 121
0.005922 0.002813 0.183078 -0.184653 -0.535294 -0.824235 123 123 123
0.005863 0.003005 0.182949 -0.137627 -0.606536 -0.783054 124 124 124
0.005729 0.003386 0.182656 -0.047538 -0.578394 -0.814372 125 125 125
0.005668 0.003578 0.182523 -0.013040 -0.559625 -0.828644 126 126 126
0.005551 0.003960 0.182268 0.037711 -0.531414 -0.846273 126 126 126
0.005500 0.004152 0.182156 0.047375 -0.520697 -0.852426 126 126 126
0.005443 0.004343 0.182031 0.057247 -0.561550 -0.825460 128 128 128
0.005379 0.004533 0.181893 0.050294 -0.593615 -0.803176 129 129 129
0.005314 0.004722 0.181752 0.016991 -0.620661 -0.783895 130 130 130
0.005244 0.004910 0.181600 -0.029126 -0.646315 -0.762514 128 128 128
0.005171 0.005098 0.181444 -0.069813 -0.653807 -0.753434 127 127 127
0.005099 0.005286 0.181288 -0.106252 -0.621019 -0.776560 130 130 130
0.005037 0.005475 0.181154 -0.129466 -0.529603 -0.838307 132 132 132
0.004982 0.005862 0.181032 -0.191380 0.033318 -0.980950 134 134 134
0.004998 0.006063 0.181064 -0.202371 0.184992 -0.961678 137 137 137
0.005017 0.006264 0.181101 -0.161743 0.114730 -0.980141 141 141 141
0.005017 0.006462 0.181099 -0.103735 -0.130163 -0.986051 144 144 144
0.004923 0.006843 0.180896 0.016948 -0.631279 -0.775371 140 140 140
0.004844 0.007028 0.180727 0.016015 -0.629720 -0.776657 134 134 134
0.004725 0.007403 0.180473 -0.120982 -0.386751 -0.914214 131 131 131
0.004684 0.007792 0.180384 -0.300563 -0.181392 -0.936354 134 134 134
0.004681 0.007989 0.180375 -0.336326 -0.076562 -0.938628 138 138 138
0.004687 0.008386 0.180386 -0.293707 0.034239 -0.955282 145 145 145
0.004692 0.008584 0.180396 -0.250673 -0.038524 -0.967305 147 147 147
0.004676 0.008977 0.180359 -0.272037 -0.180241 -0.945256 147 147 147
0.004655 0.009171 0.180315 -0.290196 -0.306096 -0.906693 149 149 149
0.004622 0.009363 0.180245 -0.395601 -0.292899 -0.870465 147 147 147
0.004597 0.009556 0.180192 -0.453745 -0.239951 -0.858219 145 145 145
0.004574 0.009947 0.180144 -0.563613 -0.012038 -0.825951 144 144 144
0.004577 0.010145 0.180150 -0.565927 0.050208 -0.822925 143 143 143
0.004583 0.010345 0.180163 -0.548366 0.113571 -0.828491 140 140 140
0.004596 0.010545 0.180191 -0.515738 0.192530 -0.834833 137 137 137
0.004618 0.010748 0.180238 -0.489544 0.295433 -0.820406 133 133 133
0.004655 0.010953 0.180315 -0.477662 0.452061 -0.753312 129 129 129
0.004716 0.011164 0.180444 -0.482957 0.567854 -0.666554 125 125 125
0.004788 0.011378 0.180596 -0.504969 0.595276 -0.625023 126 126 126
0.004858 0.011591 0.180743 -0.517004 0.526656 -0.674790 130 130 130
0.004910 0.011801 0.180855 -0.524528 0.380551 -0.761611 133 133 133
0.004942 0.012007 0.180922 -0.526679 0.197837 -0.826722 135 135 135
0.015481 -0.040962 0.203696 -0.663280 -0.251959 -0.704682 89 89 89
0.015454 -0.040736 0.203646 -0.670576 -0.284865 -0.684967 91 91 91
0.015405 -0.040504 0.203547 -0.503343 -0.469017 -0.725720 92 92 92
0.015333 -0.040266 0.203400 -0.404875 -0.598609 -0.691190 94 94 94
0.015237 -0.040021 0.203202 -0.281081 -0.687569 -0.669509 94 94 94
0.015124 -0.039771 0.202968 -0.206486 -0.717943 -0.664772 93 93 93
0.015013 -0.039523 0.202736 -0.192961 -0.720272 -0.666314 93 93 93
0.014900 -0.039275 0.202502 -0.260821 -0.706889 -0.657480 94 94 94
0.014796 -0.039029 0.202286 -0.305146 -0.682789 -0.663841 95 95 95
0.014693 -0.038784 0.202070 -0.433874 -0.662604 -0.610499 95 95 95
0.014597 -0.038541 0.201871 -0.566248 -0.612209 -0.551872 94 94 94
0.014522 -0.038305 0.201716 -0.619021 -0.501134 -0.604713 95 95 95
0.014462 -0.038073 0.201594 -0.562874 -0.420791 -0.711412 95 95 95
0.014424 -0.037846 0.201517 -0.331501 -0.252945 -0.908915 96 96 96
0.014391 -0.037622 0.201451 -0.245840 -0.329425 -0.911615 98 98 98
0.014347 -0.037394 0.201362 -0.103559 -0.414878 -0.903965 98 98 98
0.014296 -0.037165 0.201256 -0.076961 -0.443590 -0.892919 98 98 98
0.014242 -0.036935 0.201146 -0.122429 -0.387159 -0.913849 97 97 97
0.014205 -0.036710 0.201070 -0.182364 -0.277427 -0.943280 98 98 98
0.014180 -0.036488 0.201021 -0.236886 -0.251203 -0.938500 98 98 98
0.014152 -0.036266 0.200965 -0.262801 -0.376978 -0.888157 97 97 97
0.014102 -0.036038 0.200861 -0.282198 -0.548785 -0.786892 97 97 97
0.014019 -0.035802 0.200686 -0.263586 -0.644377 -0.717845 96 96 96
0.013924 -0.035563 0.200487 -0.228485 -0.670775 -0.705588 95 95 95
0.013822 -0.035323 0.200273 -0.161566 -0.693445 -0.702162 95 95 95
0.013711 -0.035082 0.200039 -0.111773 -0.725509 -0.679075 94 94 94
0.013590 -0.034838 0.199783 -0.126457 -0.757051 -0.641001 93 93 93
0.013456 -0.034592 0.199501 -0.200601 -0.763509 -0.613851 92 92 92
0.013326 -0.034347 0.199227 -0.379487 -0.710629 -0.592449 91 91 91
0.013227 -0.034110 0.199018 -0.531403 -0.616142 -0.581361 92 92 92
0.013178 -0.033885 0.198914 -0.709051 -0.337056 -0.619387 94 94 94
0.013160 -0.033668 0.198878 -0.718306 -0.190616 -0.669106 95 95 95
0.013140 -0.033450 0.198837 -0.545926 -0.359315 -0.756873 95 95 95
0.013100 -0.033227 0.198752 -0.377252 -0.504310 -0.776757 97 97 97
0.013021 -0.032996 0.198586 -0.279962 -0.671891 -0.685700 98 98 98
0.012916 -0.032759 0.198364 -0.217895 -0.716816 -0.662342 100 100 100
0.012812 -0.032524 0.198142 -0.232643 -0.678213 -0.697069 102 102 102
0.012727 -0.032292 0.197963 -0.260626 -0.544966 -0.796923 104 104 104
0.012681 -0.032070 0.197866 -0.260895 -0.323390 -0.909589 107 107 107
0.012660 -0.031853 0.197822 -0.244082 -0.123264 -0.961889 109 109 109
0.012656 -0.031639 0.197812 -0.229815 -0.015200 -0.973116 112 112 112
0.012655 -0.031426 0.197810 -0.207325 -0.035307 -0.977635 114 114 114
0.012648 -0.031212 0.197795 -0.148995 -0.121005 -0.981406 115 115 115
0.012634 -0.030997 0.197764 -0.091369 -0.168400 -0.981475 114 114 114
0.012610 -0.030779 0.197713 0.070472 -0.253459 -0.964776 115 115 115
0.012586 -0.030562 0.197662 0.166448 -0.220533 -0.961072 114 114 114
0.012567 -0.030346 0.197621 0.215899 -0.192143 -0.957324 114 114 114
0.012547 -0.030129 0.197576 0.208495 -0.169236 -0.963270 115 115 115
0.012529 -0.029914 0.197537 0.161509 -0.149439 -0.975491 115 115 115
0.012511 -0.029698 0.197497 0.092271 -0.145641 -0.985025 115 115 115
0.012493 -0.029482 0.197459 0.036927 -0.117980 -0.992329 115 115 115
0.012482 -0.029268 0.197433 0.029803 -0.032022 -0.999043 115 115 115
0.012485 -0.029056 0.197438 0.043248 0.058128 -0.997372 117 117 117
0.012502 -0.028847 0.197473 0.103728 0.138919 -0.984856 118 118 118
0.012524 -0.028638 0.197518 0.171287 0.163805 -0.971508 119 119 119
0.012549 -0.028430 0.197567 0.227708 0.149087 -0.962248 119 119 119
0.012566 -0.028221 0.197602 0.242423 0.084841 -0.966454 120 120 120
0.012574 -0.028010 0.197617 0.207310 0.018607 -0.978098 121 121 121
0.012578 -0.027798 0.197622 0.151265 -0.023594 -0.988212 123 123 123
0.012576 -0.027586 0.197616 0.114549 0.051512 -0.992081 122 122 122
0.012584 -0.027374 0.197630 0.104433 0.148757 -0.983344 123 123 123
0.012612 -0.027167 0.197686 0.132490 0.314599 -0.939933 124 124 124
0.012666 -0.026963 0.197797 0.213789 0.441166 -0.871589 124 124 124
0.012739 -0.026762 0.197950 0.310933 0.469930 -0.826128 125 125 125
0.012814 -0.026562 0.198106 0.399012 0.360728 -0.843009 124 124 124
0.012868 -0.026357 0.198217 0.427493 0.164453 -0.888935 124 124 124
0.012892 -0.026148 0.198264 0.355238 -0.051799 -0.933340 123 123 123
0.012880 -0.025933 0.198235 0.271918 -0.194897 -0.942378 124 124 124
0.012861 -0.025717 0.198191 0.207463 -0.073105 -0.975508 123 123 123
0.012856 -0.025503 0.198177 0.183025 0.104422 -0.977547 122 122 122
0.012888 -0.025295 0.198240 0.205090 0.313774 -0.927084 121 121 121
0.012943 -0.025090 0.198353 0.311182 0.387680 -0.867681 120 120 120
0.013009 -0.024887 0.198490 0.431551 0.357285 -0.828318 119 119 119
0.013073 -0.024682 0.198621 0.463955 0.360238 -0.809305 119 119 119
0.013126 -0.024477 0.198730 0.598954 0.258585 -0.757884 119 119 119
0.013166 -0.024269 0.198810 0.619393 0.201912 -0.758673 120 120 120
0.013207 -0.024061 0.198891 0.604691 0.220063 -0.765455 121 121 121
0.013254 -0.023853 0.198988 0.621639 0.254941 -0.740655 122 122 122
0.013315 -0.023648 0.199112 0.671829 0.222827 -0.706395 123 123 123
0.013405 -0.023446 0.199299 0.695446 0.294637 -0.655396 123 123 123
0.013534 -0.023248 0.199567 0.650093 0.378415 -0.658924 123 123 123
0.013657 -0.023050 0.199823 0.716956 0.290049 -0.633913 121 121 121
0.013722 -0.022843 0.199955 0.635205 0.103182 -0.765420 118 118 118
0.013680 -0.022623 0.199862 0.635205 0.103182 -0.765420 114 114 114
0.013460 -0.022382 0.199390 0.807727 -0.052293 -0.587232 111 111 111
0.013051 -0.022119 0.198517 0.665401 -0.423936 -0.614426 106 106 106
0.012543 -0.021846 0.197433 0.786910 -0.472161 -0.397287 103 103 103
0.012040 -0.021576 0.196361 0.722704 -0.513109 -0.463052 100 100 100
0.011548 -0.021309 0.195311 0.689303 -0.526784 -0.497353 98 98 98
0.011090 -0.021048 0.194336 0.678178 -0.539324 -0.499204 99 99 99
0.010671 -0.020793 0.193441 0.704309 -0.530626 -0.471578 100 100 100
0.010274 -0.020542 0.192592 0.685752 -0.547168 -0.479950 103 103 103
0.009922 -0.020297 0.191840 0.670626 -0.520770 -0.528261 106 106 106
0.009663 -0.020064 0.191286 0.678247 -0.435396 -0.591956 110 110 110
0.009508 -0.019841 0.190951 0.679871 -0.273641 -0.680365 115 115 115
0.009450 -0.019630 0.190823 0.606412 -0.064646 -0.792518 118 118 118
0.009458 -0.019424 0.190833 0.631463 0.036100 -0.774566 119 119 119
0.009493 -0.019222 0.190900 0.624992 0.132488 -0.769306 116 116 116
0.009524 -0.019018 0.190961 0.614138 0.175709 -0.769390 114 114 114
0.009575 -0.018817 0.191063 0.603066 0.229516 -0.763959 111 111 111
0.009673 -0.018619 0.191263 0.369946 0.581650 -0.724447 108 108 108
0.009834 -0.018427 0.191599 0.314396 0.623393 -0.715916 106 106 106
0.010067 -0.018240 0.192086 0.004002 0.893084 -0.449871 105 105 105
0.010350 -0.018056 0.192681 -0.226315 0.947633 -0.225328 104 104 104
0.010633 -0.017871 0.193273 -0.430955 0.895182 -0.113697 104 104 104
0.010845 -0.017680 0.193717 -0.535572 0.811860 -0.232477 102 102 102
0.010979 -0.017481 0.193994 -0.733886 0.614325 -0.289856 101 101 101
0.011032 -0.017276 0.194099 -0.878915 0.215242 -0.425651 99 99 99
0.011031 -0.017067 0.194090 -0.935956 0.085030 -0.341696 99 99 99
0.011040 -0.016859 0.194102 -0.963055 0.107843 -0.246770 100 100 100
0.011096 -0.016653 0.194213 -0.797353 0.366213 -0.479704 102 102 102
0.011200 -0.016451 0.194428 -0.705349 0.671356 -0.227516 104 104 104
0.011322 -0.016250 0.194679 -0.592072 0.756243 -0.278471 105 105 105
0.011448 -0.016048 0.194938 -0.472682 0.814667 -0.335989 106 106 106
0.011578 -0.015846 0.195207 -0.371503 0.792846 -0.483095 107 107 107
0.011715 -0.015644 0.195490 -0.430017 0.831858 -0.350853 110 110 110
0.011879 -0.015443 0.195831 -0.402558 0.858673 -0.317218 114 114 114
0.012049 -0.015242 0.196184 -0.705115 0.696519 -0.132944 120 120 120
0.012190 -0.015038 0.196474 -0.747447 0.613175 -0.255617 126 126 126
0.012270 -0.014831 0.196638 -0.832689 0.322894 -0.449854 130 130 130
0.012293 -0.014620 0.196678 -0.539867 -0.102354 -0.835505 132 132 132
0.012289 -0.014409 0.196662 -0.274345 -0.423192 -0.863506 134 134 134
0.012279 -0.014197 0.196633 -0.336306 -0.120713 -0.933984 136 136 136
0.012285 -0.013985 0.196638 0.274368 0.043819 -0.960626 137 137 137
0.012312 -0.013775 0.196688 0.362761 0.147712 -0.920101 137 137 137
0.012343 -0.013565 0.196746 0.192806 0.165943 -0.967103 138 138 138
0.012386 -0.013355 0.196830 0.220689 0.260472 -0.939920 137 137 137
0.012425 -0.013144 0.196903 0.050198 0.356575 -0.932917 137 137 137
0.012480 -0.012934 0.197013 -0.093156 0.487598 -0.868084 137 137 137
0.012543 -0.012724 0.197139 -0.190131 0.523563 -0.830501 137 137 137
0.012592 -0.012514 0.197235 -0.064812 0.387246 -0.919696 139 139 139
0.012612 -0.012302 0.197270 0.040500 0.139935 -0.989332 141 141 141
0.012610 -0.012090 0.197256 -0.332079 -0.062435 -0.941183 140 140 140
0.012595 -0.011878 0.197217 -0.185540 -0.029668 -0.982189 138 138 138
0.012600 -0.011666 0.197219 -0.201732 0.127158 -0.971151 135 135 135
0.012618 -0.011454 0.197249 0.365961 0.065452 -0.928326 133 133 133
0.012654 -0.011242 0.197317 0.383960 0.198923 -0.901668 133 133 133
0.012686 -0.011031 0.197377 0.329984 0.214674 -0.919253 133 133 133
0.012710 -0.010819 0.197421 0.306344 0.157406 -0.938816 133 133 133
0.012742 -0.010607 0.197479 0.321853 0.230208 -0.918376 133 133 133
0.012786 -0.010395 0.197565 0.278531 0.310623 -0.908809 134 134 134
0.012844 -0.010183 0.197680 0.199808 0.368515 -0.907895 134 134 134
0.012906 -0.009971 0.197803 0.064664 0.382960 -0.921499 133 133 133
0.012965 -0.009758 0.197919 -0.219751 0.380347 -0.898357 131 131 131
0.013020 -0.009545 0.198028 -0.557406 0.250843 -0.791439 129 129 129
0.013036 -0.009333 0.198054 -0.835632 0.245150 -0.491550 123 123 123
0.013017 -0.009120 0.198005 -0.950560 -0.211206 -0.227656 116 116 116
0.012902 -0.008907 0.197754 -0.692097 -0.721563 0.018656 106 106 106
0.012658 -0.008696 0.197228 0.618928 0.784732 -0.033533 94 94 94
0.012267 -0.008488 0.196393 0.546308 0.831065 -0.104304 85 85 85
0.011783 -0.008282 0.195360 0.536034 0.833618 -0.133224 79 79 79
0.011255 -0.008078 0.194235 -0.441312 -0.897128 -0.020127 76 76 76
0.010772 -0.007876 0.193205 -0.357282 -0.860681 -0.362737 74 74 74
0.010397 -0.007674 0.192403 0.218577 -0.922899 -0.316988 74 74 74
0.010159 -0.007471 0.191890 0.055381 -0.861931 -0.503992 75 75 75
0.010062 -0.007266 0.191677 0.845038 0.209561 -0.491930 79 79 79
0.010131 -0.007057 0.191815 0.699122 0.048670 -0.713344 83 83 83
0.010364 -0.006844 0.192300 0.516738 0.725386 -0.454750 87 87 87
0.010681 -0.006628 0.192964 0.355143 0.771459 -0.527943 91 91 91
0.010996 -0.006411 0.193621 0.555051 0.603595 -0.572356 93 93 93
0.011276 -0.006193 0.194207 0.629450 0.486536 -0.605868 95 95 95
0.011500 -0.005977 0.194674 0.651627 0.432270 -0.623318 97 97 97
0.011728 -0.005549 0.195139 0.607035 0.236981 -0.758518 101 101 101
0.011786 -0.005336 0.195253 0.778357 0.062948 -0.624658 103 103 103
0.011838 -0.005124 0.195357 0.670771 0.100568 -0.734814 103 103 103
0.011803 -0.004915 0.195274 0.599660 -0.408955 -0.687869 103 103 103
0.011603 -0.004713 0.194843 0.986947 -0.114028 -0.113720 101 101 101
0.011132 -0.004525 0.193839 0.296171 -0.752408 -0.588357 97 97 97
0.010346 -0.004354 0.192169 0.507354 -0.806127 -0.304552 93 93 93
0.009330 -0.004198 0.190013 0.372288 -0.894794 -0.246463 92 92 92
0.008427 -0.004040 0.188097 0.392833 -0.904949 -0.163550 97 97 97
0.007790 -0.003871 0.186743 0.343486 -0.881502 -0.323993 104 104 104
0.007437 -0.003689 0.185989 0.140416 -0.852713 -0.503155 111 111 111
0.007284 -0.003496 0.185658 -0.349696 -0.665882 -0.659025 113 113 113
0.007251 -0.003297 0.185582 -0.707653 -0.236770 -0.665708 114 114 114
0.007226 -0.003097 0.185522 -0.652742 -0.303181 -0.694269 113 113 113
0.007203 -0.002897 0.185467 -0.598254 -0.254755 -0.759731 114 114 114
0.007181 -0.002697 0.185412 -0.490683 -0.115016 -0.863714 115 115 115
0.007179 -0.002496 0.185402 -0.509298 -0.129093 -0.850853 118 118 118
0.007184 -0.002294 0.185406 -0.351919 -0.064228 -0.933824 122 122 122
0.007180 -0.002093 0.185391 -0.218473 -0.127044 -0.967538 125 125 125
0.007174 -0.001893 0.185371 -0.161105 -0.106577 -0.981166 126 126 126
0.007169 -0.001692 0.185355 -0.146539 -0.082546 -0.985755 126 126 126
0.007169 -0.001490 0.185348 -0.093229 0.009341 -0.995601 125 125 125
0.007180 -0.001288 0.185365 -0.104391 0.096050 -0.989887 126 126 126
0.007194 -0.001086 0.185386 -0.120976 0.071384 -0.990085 127 127 127
0.007201 -0.000884 0.185394 -0.141131 -0.106758 -0.984218 127 127 127
0.007185 -0.000684 0.185354 -0.143318 -0.322672 -0.935598 123 123 123
0.007150 -0.000486 0.185274 -0.188041 -0.460125 -0.867713 120 120 120
0.007105 -0.000288 0.185173 -0.229610 -0.486163 -0.843164 120 120 120
0.007058 -0.000091 0.185069 -0.244899 -0.489377 -0.836980 119 119 119
0.007012 0.000105 0.184966 -0.329639 -0.527316 -0.783119 119 119 119
0.006961 0.000302 0.184852 -0.352450 -0.571173 -0.741310 119 119 119
0.006899 0.000496 0.184715 -0.387758 -0.674819 -0.627903 118 118 118
0.006821 0.000689 0.184544 -0.389517 -0.699824 -0.598768 116 116 116
0.006738 0.000882 0.184362 -0.408893 -0.689468 -0.597863 116 116 116
0.006664 0.001074 0.184201 -0.364104 -0.660494 -0.656640 116 116 116
0.006599 0.001268 0.184059 -0.276064 -0.585416 -0.762284 117 117 117
0.006538 0.001462 0.183925 -0.217506 -0.594740 -0.773935 119 119 119
0.006469 0.001654 0.183774 -0.075372 -0.624872 -0.777081 120 120 120
0.006397 0.001846 0.183617 0.010590 -0.619718 -0.784753 121 121 121
0.006331 0.002039 0.183473 -0.008979 -0.579767 -0.814732 123 123 123
0.006273 0.002232 0.183345 -0.104030 -0.528294 -0.842664 125 125 125
0.006223 0.002426 0.183235 -0.214403 -0.503839 -0.836766 125 125 125
0.006174 0.002619 0.183126 -0.251311 -0.533671 -0.807489 125 125 125
0.006123 0.002813 0.183013 -0.282142 -0.545249 -0.789366 125 125 125
0.006069 0.003006 0.182895 -0.279598 -0.536544 -0.796207 126 126 126
0.006009 0.003198 0.182765 -0.120119 -0.579341 -0.806186 126 126 126
0.005954 0.003390 0.182643 -0.009750 -0.511399 -0.859288 126 126 126
0.005899 0.003582 0.182524 0.007451 -0.532967 -0.846103 125 125 125
0.005843 0.003774 0.182402 0.025735 -0.545765 -0.837543 125 125 125
0.005787 0.003965 0.182280 0.007999 -0.542999 -0.839695 126 126 126
0.005736 0.004157 0.182167 -0.013437 -0.549763 -0.835213 128 128 128
0.005677 0.004348 0.182040 -0.023329 -0.579373 -0.814728 129 129 129
0.005609 0.004537 0.181893 -0.072570 -0.640110 -0.764848 127 127 127
0.005536 0.004725 0.181735 -0.110517 -0.665629 -0.738054 125 125 125
0.005458 0.004913 0.181567 -0.130781 -0.679008 -0.722388 126 126 126
0.005381 0.005100 0.181401 -0.139086 -0.669059 -0.730079 128 128 128
0.005307 0.005287 0.181243 -0.132042 -0.625620 -0.768872 130 130 130
0.005246 0.005476 0.181111 -0.114390 -0.518661 -0.847293 131 131 131
0.005205 0.005668 0.181021 -0.132639 -0.304048 -0.943378 134 134 134
0.005191 0.005864 0.180990 -0.100450 0.021137 -0.994718 139 139 139
0.005208 0.006065 0.181023 -0.131045 0.178883 -0.975104 143 143 143
0.005231 0.006267 0.181069 -0.110666 0.141791 -0.983691 144 144 144
0.005240 0.006466 0.181085 -0.104727 -0.041945 -0.993616 141 141 141
0.005222 0.006661 0.181044 0.073707 -0.286211 -0.955327 138 138 138
0.005167 0.006851 0.180927 0.115838 -0.492961 -0.862306 133 133 133
0.005091 0.007036 0.180764 0.098763 -0.636154 -0.765215 130 130 130
0.005015 0.007221 0.180603 0.110586 -0.575902 -0.810005 130 130 130
0.004954 0.007409 0.180473 0.023690 -0.470570 -0.882045 132 132 132
0.004916 0.007600 0.180392 -0.045111 -0.330410 -0.942759 136 136 136
0.004888 0.007793 0.180330 -0.257537 -0.174912 -0.950305 139 139 139
0.004875 0.007989 0.180303 -0.268573 -0.143457 -0.952517 144 144 144
0.004873 0.008186 0.180295 -0.361709 -0.028213 -0.931864 149 149 149
0.004888 0.008584 0.180325 -0.355749 0.018164 -0.934405 153 153 153
0.004887 0.008782 0.180323 -0.281849 -0.133432 -0.950135 153 153 153
0.004874 0.008977 0.180294 -0.301123 -0.202679 -0.931797 153 153 153
0.004853 0.009171 0.180249 -0.295494 -0.339652 -0.892928 151 151 151
0.004814 0.009362 0.180168 -0.351597 -0.369682 -0.860067 148 148 148
0.004782 0.009554 0.180101 -0.365602 -0.344466 -0.864684 146 146 146
0.004758 0.009747 0.180050 -0.458388 -0.140592 -0.877561 145 145 145
0.004750 0.009943 0.180033 -0.495634 -0.084086 -0.864452 142 142 142
0.004753 0.010141 0.180039 -0.501052 0.069851 -0.862594 141 141 141
0.004761 0.010341 0.180056 -0.472613 0.153159 -0.867859 139 139 139
0.004778 0.010542 0.180091 -0.434064 0.226434 -0.871961 134 134 134
0.004799 0.010745 0.180137 -0.401427 0.284891 -0.870456 130 130 130
0.004830 0.010949 0.180203 -0.391027 0.409858 -0.824084 124 124 124
0.004884 0.011158 0.180315 -0.413825 0.526703 -0.742518 122 122 122
0.004949 0.011370 0.180454 -0.463915 0.562021 -0.684773 125 125 125
0.005017 0.011583 0.180596 -0.539150 0.521173 -0.661586 127 127 127
0.005070 0.011793 0.180708 -0.623497 0.404161 -0.669257 128 128 128
0.005104 0.011999 0.180781 -0.617187 0.287461 -0.732425 127 127 127
0.015626 -0.040944 0.203465 -0.758174 -0.130988 -0.638760 89 89 89
0.015622 -0.040724 0.203462 -0.697315 -0.060955 -0.714168 90 90 90
0.015595 -0.040499 0.203413 -0.481233 -0.305147 -0.821766 91 91 91
0.015542 -0.040266 0.203305 -0.356711 -0.510544 -0.782370 92 92 92
0.015459 -0.040025 0.203136 -0.200475 -0.640003 -0.741758 93 93 93
0.015354 -0.039777 0.202918 -0.113114 -0.698656 -0.706459 94 94 94
0.015241 -0.039528 0.202684 -0.132992 -0.721623 -0.679392 94 94 94
0.015118 -0.039277 0.202428 -0.215043 -0.740737 -0.636447 93 93 93
0.014993 -0.039026 0.202167 -0.304950 -0.730879 -0.610592 93 93 93
0.014868 -0.038775 0.201907 -0.366442 -0.733613 -0.572305 94 94 94
0.014759 -0.038529 0.201682 -0.512559 -0.643154 -0.568890 94 94 94
0.014688 -0.038294 0.201536 -0.557158 -0.437985 -0.705510 95 95 95
0.014651 -0.038068 0.201460 -0.428593 -0.130842 -0.893974 95 95 95
0.014643 -0.037849 0.201448 -0.341492 0.010157 -0.939830 95 95 95
0.014635 -0.037631 0.201435 -0.104551 -0.128822 -0.986141 96 96 96
0.014603 -0.037407 0.201371 0.022082 -0.336630 -0.941378 98 98 98
0.014549 -0.037177 0.201261 0.040162 -0.433421 -0.900296 98 98 98
0.014489 -0.036946 0.201137 -0.017009 -0.417459 -0.908537 98 98 98
0.014441 -0.036718 0.201038 -0.109471 -0.339719 -0.934135 98 98 98
0.014406 -0.036493 0.200967 -0.216188 -0.317945 -0.923133 98 98 98
0.014368 -0.036268 0.200890 -0.292869 -0.419419 -0.859253 98 98 98
0.014312 -0.036039 0.200774 -0.299272 -0.573417 -0.762646 98 98 98
0.014228 -0.035802 0.200599 -0.291927 -0.630529 -0.719174 97 97 97
0.014142 -0.035566 0.200418 -0.245535 -0.624965 -0.741034 96 96 96
0.014055 -0.035330 0.200236 -0.147489 -0.633274 -0.759744 95 95 95
0.013958 -0.035092 0.200034 -0.044572 -0.677705 -0.733982 94 94 94
0.013841 -0.034849 0.199788 -0.026609 -0.747945 -0.663227 94 94 94
0.013696 -0.034600 0.199481 -0.073231 -0.791478 -0.606795 92 92 92
0.013542 -0.034350 0.199157 -0.158082 -0.772736 -0.614727 91 91 91
0.013416 -0.034107 0.198891 -0.331535 -0.650172 -0.683638 90 90 90
0.013350 -0.033878 0.198753 -0.424420 -0.407019 -0.808828 91 91 91
0.013333 -0.033447 0.198719 -0.372723 -0.183156 -0.909687 93 93 93
0.013313 -0.033229 0.198678 -0.267134 -0.383648 -0.883999 95 95 95
0.013248 -0.033001 0.198542 -0.135923 -0.619728 -0.772956 96 96 96
0.013148 -0.032766 0.198329 -0.136750 -0.691820 -0.709002 98 98 98
0.013043 -0.032530 0.198108 -0.083832 -0.662855 -0.744040 99 99 99
0.012958 -0.032298 0.197929 -0.095634 -0.525248 -0.845558 101 101 101
0.012915 -0.032076 0.197837 -0.095607 -0.294801 -0.950764 104 104 104
0.012897 -0.031860 0.197800 -0.096936 -0.114799 -0.988648 106 106 106
0.012894 -0.031646 0.197793 -0.106027 -0.032371 -0.993836 109 109 109
0.012893 -0.031434 0.197791 -0.109701 -0.020964 -0.993744 111 111 111
0.012891 -0.031220 0.197785 -0.093937 -0.013092 -0.995492 114 114 114
0.012886 -0.031007 0.197776 -0.019747 -0.011416 -0.999740 117 117 117
0.012878 -0.030793 0.197758 0.103362 -0.013751 -0.994549 118 118 118
0.012871 -0.030578 0.197741 0.223420 -0.027374 -0.974338 118 118 118
0.012861 -0.030364 0.197720 0.294424 -0.098981 -0.950535 119 119 119
0.012840 -0.030147 0.197674 0.303734 -0.185252 -0.934573 120 120 120
0.012811 -0.029929 0.197612 0.250738 -0.216076 -0.943632 120 120 120
0.012779 -0.029710 0.197544 0.178879 -0.222413 -0.958402 120 120 120
0.012751 -0.029492 0.197483 0.124342 -0.167291 -0.978035 121 121 121
0.012736 -0.029277 0.197450 0.118225 -0.026172 -0.992642 121 121 121
0.012744 -0.029066 0.197464 0.131868 0.108011 -0.985365 121 121 121
0.012769 -0.028858 0.197514 0.171256 0.204833 -0.963699 121 121 121
0.012798 -0.028651 0.197575 0.209233 0.227773 -0.950968 123 123 123
0.012828 -0.028444 0.197636 0.235023 0.185556 -0.954114 123 123 123
0.012845 -0.028235 0.197671 0.217834 0.063529 -0.973916 123 123 123
0.012848 -0.028023 0.197673 0.192795 -0.001115 -0.981238 123 123 123
0.012843 -0.027809 0.197661 0.161058 -0.037780 -0.986222 124 124 124
0.012836 -0.027595 0.197643 0.151519 0.018664 -0.988278 124 124 124
0.012844 -0.027384 0.197657 0.155837 0.160190 -0.974707 124 124 124
0.012880 -0.027178 0.197731 0.201037 0.377323 -0.903997 123 123 123
0.012948 -0.026976 0.197872 0.257426 0.519925 -0.814499 123 123 123
0.013039 -0.026778 0.198062 0.347136 0.514236 -0.784257 124 124 124
0.013126 -0.026579 0.198243 0.363536 0.375245 -0.852662 123 123 123
0.013180 -0.026375 0.198354 0.365576 0.204969 -0.907933 123 123 123
0.013193 -0.026163 0.198377 0.345860 -0.093685 -0.933597 121 121 121
0.013161 -0.025945 0.198308 0.236631 -0.233345 -0.943163 121 121 121
0.013124 -0.025726 0.198225 0.200690 -0.148546 -0.968327 121 121 121
0.013114 -0.025512 0.198200 0.200555 0.094442 -0.975120 120 120 120
0.013157 -0.025305 0.198287 0.268716 0.400802 -0.875870 118 118 118
0.013239 -0.025104 0.198458 0.366494 0.495461 -0.787528 117 117 117
0.013335 -0.024905 0.198657 0.490801 0.471014 -0.732980 116 116 116
0.013499 -0.024501 0.198994 0.581098 0.327849 -0.744876 114 114 114
0.013555 -0.024295 0.199109 0.605963 0.269549 -0.748433 114 114 114
0.013609 -0.024088 0.199219 0.637653 0.251214 -0.728210 114 114 114
0.013671 -0.023882 0.199345 0.644748 0.269882 -0.715167 115 115 115
0.013747 -0.023678 0.199502 0.652485 0.334592 -0.679935 116 116 116
0.013863 -0.023479 0.199742 0.659760 0.398685 -0.636998 116 116 116
0.014032 -0.023286 0.200095 0.678773 0.392061 -0.620931 114 114 114
0.014216 -0.023095 0.200479 0.734849 0.305815 -0.605371 113 113 113
0.014367 -0.022898 0.200794 0.744084 0.347238 -0.570758 113 113 113
0.014425 -0.022690 0.200912 0.724041 0.029771 -0.689114 113 113 113
0.014315 -0.022461 0.200674 0.859171 -0.095152 -0.502763 113 113 113
0.014029 -0.022212 0.200064 0.764361 -0.227969 -0.603144 111 111 111
0.013617 -0.021949 0.199186 0.655531 -0.512560 -0.554583 108 108 108
0.013161 -0.021682 0.198214 0.718841 -0.479874 -0.502979 105 105 105
0.012690 -0.021416 0.197213 0.724808 -0.438126 -0.531694 102 102 102
0.012217 -0.021151 0.196206 0.749204 -0.463334 -0.473302 99 99 99
0.011744 -0.020888 0.195199 0.787136 -0.472717 -0.396177 98 98 98
0.011250 -0.020625 0.194148 0.787182 -0.472844 -0.395932 97 97 97
0.010762 -0.020365 0.193110 0.701496 -0.531785 -0.474456 97 97 97
0.010353 -0.020114 0.192239 0.695296 -0.501172 -0.515161 100 100 100
0.010067 -0.019878 0.191628 0.705504 -0.326061 -0.629244 103 103 103
0.009921 -0.019657 0.191313 0.699493 -0.261325 -0.665145 108 108 108
0.009877 -0.019446 0.191213 0.662944 -0.048618 -0.747089 114 114 114
0.009888 -0.019241 0.191230 0.646697 0.009179 -0.762692 117 117 117
0.009907 -0.019036 0.191264 0.570129 0.163353 -0.805152 119 119 119
0.009934 -0.018832 0.191315 0.555442 0.197185 -0.807838 117 117 117
0.009993 -0.018630 0.191434 0.424077 0.442522 -0.790148 116 116 116
0.010097 -0.018433 0.191647 0.323838 0.699662 -0.636868 112 112 112
0.010261 -0.018240 0.191989 -0.133121 0.853972 -0.503002 109 109 109
0.010480 -0.018051 0.192445 -0.405754 0.881791 -0.240433 108 108 108
0.010716 -0.017862 0.192938 -0.513951 0.852091 -0.098976 107 107 107
0.010907 -0.017669 0.193336 -0.751113 0.656996 -0.064686 106 106 106
0.011038 -0.017471 0.193605 -0.907769 0.399262 -0.128625 106 106 106
0.011094 -0.017266 0.193717 -0.983520 0.096650 -0.152800 105 105 105
0.011090 -0.017057 0.193702 -0.983993 0.085261 -0.156489 103 103 103
0.011086 -0.016848 0.193685 -0.991713 0.030196 -0.124871 102 102 102
0.011120 -0.016642 0.193750 -0.972390 0.219858 -0.078232 101 101 101
0.011204 -0.016438 0.193922 -0.910950 0.411718 -0.025652 102 102 102
0.011448 -0.016036 0.194423 -0.849824 0.526823 0.016045 103 103 103
0.011590 -0.015835 0.194716 -0.844736 0.534927 0.016592 104 104 104
0.011726 -0.015633 0.194996 -0.836964 0.546885 0.020217 104 104 104
0.011879 -0.015432 0.195313 -0.770499 0.637441 -0.000028 105 105 105
0.012040 -0.015230 0.195647 -0.798707 0.601083 0.027678 107 107 107
0.012180 -0.015027 0.195935 -0.868187 0.495225 -0.031682 110 110 110
0.012277 -0.014821 0.196132 -0.934703 0.354186 0.029720 115 115 115
0.012337 -0.014613 0.196253 -0.974566 0.207047 -0.085750 123 123 123
0.012381 -0.014404 0.196339 -0.908301 0.130591 -0.397410 128 128 128
0.012421 -0.014194 0.196416 -0.913091 0.196462 -0.357305 131 131 131
0.012528 -0.013776 0.196626 -0.644205 0.442103 -0.624136 135 135 135
0.012570 -0.013566 0.196707 -0.678218 0.299030 -0.671268 138 138 138
0.012599 -0.013355 0.196760 -0.680942 0.331434 -0.653047 140 140 140
0.012614 -0.013144 0.196785 -0.864304 0.269811 -0.424478 140 140 140
0.012650 -0.012934 0.196853 -0.845370 0.399772 -0.354305 140 140 140
0.012711 -0.012724 0.196974 -0.800966 0.468473 -0.372810 140 140 140
0.012782 -0.012514 0.197117 -0.752403 0.440344 -0.489884 139 139 139
0.012840 -0.012303 0.197232 -0.649560 0.283842 -0.705341 141 141 141
0.012875 -0.012092 0.197297 -0.426987 0.079975 -0.900714 142 142 142
0.012885 -0.011668 0.197302 -0.294284 0.246050 -0.923502 141 141 141
0.012896 -0.011456 0.197317 -0.317554 0.234419 -0.918807 138 138 138
0.012926 -0.011244 0.197374 -0.285170 0.319206 -0.903762 137 137 137
0.012957 -0.011032 0.197431 -0.240654 0.285706 -0.927608 135 135 135
0.012985 -0.010820 0.197482 -0.217497 0.259477 -0.940939 134 134 134
0.013015 -0.010608 0.197537 -0.270378 0.259873 -0.927018 134 134 134
0.013050 -0.010396 0.197602 -0.431444 0.266032 -0.862023 133 133 133
0.013089 -0.010184 0.197676 -0.698722 0.179325 -0.692553 133 133 133
0.013123 -0.009971 0.197741 -0.639896 0.421198 -0.642748 133 133 133
0.013143 -0.009759 0.197775 -0.813205 0.242214 -0.529179 131 131 131
0.013141 -0.009546 0.197762 -0.834895 -0.030050 -0.549588 129 129 129
0.013071 -0.009333 0.197607 -0.965354 -0.259982 -0.022371 125 125 125
0.012962 -0.009121 0.197367 0.898146 0.412094 -0.153340 118 118 118
0.012765 -0.008910 0.196944 0.823067 0.550627 -0.139175 109 109 109
0.012480 -0.008700 0.196333 0.667766 0.707089 -0.232622 98 98 98
0.012102 -0.008492 0.195528 -0.709148 -0.704789 0.019527 88 88 88
0.011680 -0.008286 0.194627 0.483930 0.874295 -0.037675 79 79 79
0.011263 -0.008081 0.193738 -0.296056 -0.908809 -0.293969 74 74 74
0.010905 -0.007877 0.192975 0.724758 -0.677439 -0.125710 73 73 73
0.010670 -0.007673 0.192471 0.408261 -0.644253 -0.646732 73 73 73
0.010591 -0.007467 0.192296 0.797758 -0.163523 -0.580381 75 75 75
0.010619 -0.007259 0.192346 0.797758 -0.163523 -0.580381 78 78 78
0.010784 -0.007047 0.192688 0.723295 0.388334 -0.571000 82 82 82
0.011037 -0.006833 0.193214 0.701976 0.466115 -0.538486 87 87 87
0.011317 -0.006617 0.193798 0.618530 0.576402 -0.534024 92 92 92
0.011561 -0.006401 0.194303 0.627078 0.549434 -0.552174 97 97 97
0.011768 -0.006185 0.194734 0.593080 0.534556 -0.602085 103 103 103
0.012071 -0.005755 0.195357 0.557424 0.419551 -0.716418 103 103 103
0.012166 -0.005541 0.195550 0.484358 0.459378 -0.744560 110 110 110
0.012250 -0.005327 0.195718 0.250108 0.494132 -0.832634 113 113 113
0.012343 -0.005112 0.195907 0.579498 0.285110 -0.763475 115 115 115
0.012370 -0.004900 0.195955 0.745903 -0.100717 -0.658396 116 116 116
0.012243 -0.004694 0.195680 0.650291 -0.149877 -0.744754 117 117 117
0.011844 -0.004502 0.194830 0.579493 -0.640582 -0.503827 116 116 116
0.010102 -0.004170 0.191139 0.386540 -0.889767 -0.242694 110 110 110
0.009081 -0.004017 0.188978 0.167368 -0.910632 -0.377807 103 103 103
0.008291 -0.003855 0.187303 0.329244 -0.905485 -0.267761 102 102 102
0.007800 -0.003680 0.186260 0.236577 -0.901522 -0.362338 108 108 108
0.007547 -0.003493 0.185719 -0.084012 -0.789790 -0.607597 118 118 118
0.007463 -0.003296 0.185535 -0.304295 -0.545319 -0.781045 124 124 124
0.007425 -0.003097 0.185448 -0.420518 -0.345096 -0.839091 128 128 128
0.007403 -0.002897 0.185395 -0.437278 -0.136146 -0.888961 129 129 129
0.007389 -0.002697 0.185358 -0.329132 -0.092443 -0.939748 128 128 128
0.007395 -0.002495 0.185363 -0.119744 0.119647 -0.985569 129 129 129
0.007408 -0.002092 0.185377 0.045915 -0.049438 -0.997721 134 134 134
0.007405 -0.001891 0.185365 0.067022 -0.076685 -0.994800 136 136 136
0.007403 -0.001689 0.185355 0.095288 -0.052045 -0.994088 138 138 138
0.007405 -0.001488 0.185352 0.117334 0.013791 -0.992997 137 137 137
0.007416 -0.001286 0.185368 0.130911 0.065607 -0.989221 136 136 136
0.007427 -0.001083 0.185384 0.126777 0.034827 -0.991320 136 136 136
0.007428 -0.000882 0.185382 0.072377 -0.117762 -0.990401 136 136 136
0.007407 -0.000682 0.185330 0.008231 -0.330490 -0.943774 135 135 135
0.007366 -0.000484 0.185238 -0.068207 -0.465256 -0.882545 132 132 132
0.007315 -0.000288 0.185125 -0.152375 -0.521282 -0.839671 129 129 129
0.007262 -0.000091 0.185007 -0.198653 -0.560233 -0.804162 125 125 125
0.007151 0.000300 0.184761 -0.344942 -0.635360 -0.690893 122 122 122
0.007082 0.000495 0.184608 -0.368163 -0.679128 -0.635013 121 121 121
0.006996 0.000687 0.184421 -0.400556 -0.718465 -0.568650 120 120 120
0.006843 0.001072 0.184089 -0.404557 -0.589149 -0.699455 118 118 118
0.006793 0.001267 0.183978 -0.363573 -0.470930 -0.803766 119 119 119
0.006751 0.001463 0.183884 -0.224550 -0.469967 -0.853644 120 120 120
0.006699 0.001658 0.183769 -0.085332 -0.553138 -0.828708 118 118 118
0.006635 0.001851 0.183628 -0.015797 -0.615135 -0.788263 118 118 118
0.006565 0.002043 0.183476 -0.067084 -0.641872 -0.763871 119 119 119
0.006492 0.002234 0.183317 -0.195976 -0.636393 -0.746054 119 119 119
0.006425 0.002426 0.183172 -0.330740 -0.604060 -0.725067 120 120 120
0.006365 0.002618 0.183040 -0.378551 -0.563637 -0.734174 120 120 120
0.006314 0.002812 0.182928 -0.399067 -0.515870 -0.758039 118 118 118
0.006227 0.003200 0.182736 -0.165879 -0.448574 -0.878217 118 118 118
0.006184 0.003394 0.182642 -0.072823 -0.439285 -0.895391 118 118 118
0.006135 0.003587 0.182533 0.010428 -0.507930 -0.861335 120 120 120
0.006076 0.003778 0.182406 0.010228 -0.556833 -0.830562 120 120 120
0.006015 0.003969 0.182273 -0.053901 -0.572874 -0.817869 120 120 120
0.005955 0.004160 0.182142 -0.126712 -0.597742 -0.791611 122 122 122
0.005890 0.004350 0.182002 -0.164682 -0.657007 -0.735677 124 124 124
0.005741 0.004726 0.181681 -0.222191 -0.688456 -0.690405 124 124 124
0.005663 0.004914 0.181514 -0.228125 -0.682004 -0.694860 123 123 123
0.005588 0.005101 0.181354 -0.209602 -0.652376 -0.728336 125 125 125
0.005520 0.005290 0.181208 -0.173865 -0.591456 -0.787370 126 126 126
0.005465 0.005480 0.181089 -0.126990 -0.470473 -0.873229 129 129 129
0.005429 0.005672 0.181011 -0.079287 -0.279187 -0.956958 131 131 131
0.005416 0.005868 0.180981 -0.085336 -0.014148 -0.996252 134 134 134
0.005429 0.006069 0.181005 -0.106009 0.157972 -0.981737 137 137 137
0.005449 0.006270 0.181044 -0.124824 0.142046 -0.981958 142 142 142
0.005460 0.006470 0.181064 -0.122788 0.011301 -0.992369 145 145 145
0.005448 0.006666 0.181036 -0.014376 -0.283017 -0.959007 144 144 144
0.005340 0.007045 0.180805 0.154165 -0.568784 -0.807909 139 139 139
0.005267 0.007231 0.180650 0.183680 -0.568790 -0.801710 135 135 135
0.005197 0.007417 0.180502 0.161283 -0.515557 -0.841540 133 133 133
0.005101 0.007796 0.180297 -0.047771 -0.396007 -0.917004 135 135 135
0.005075 0.007989 0.180240 -0.256625 -0.161877 -0.952859 139 139 139
0.005065 0.008185 0.180219 -0.265868 -0.064671 -0.961838 146 146 146
0.005071 0.008384 0.180231 -0.319857 0.053964 -0.945928 152 152 152
0.005085 0.008782 0.180258 -0.293502 -0.074917 -0.953018 156 156 156
0.005074 0.008978 0.180233 -0.286447 -0.197391 -0.937542 158 158 158
0.005053 0.009172 0.180188 -0.281914 -0.360614 -0.889090 159 159 159
0.005011 0.009362 0.180099 -0.315096 -0.418110 -0.851997 158 158 158
0.004973 0.009553 0.180021 -0.359796 -0.348497 -0.865504 154 154 154
0.004944 0.009745 0.179959 -0.386534 -0.220055 -0.895638 149 149 149
0.004934 0.010139 0.179939 -0.400892 0.073191 -0.913197 147 147 147
0.004945 0.010339 0.179963 -0.393113 0.161269 -0.905237 143 143 143
0.004968 0.010541 0.180010 -0.349697 0.240328 -0.905513 139 139 139
0.004993 0.010744 0.180063 -0.321422 0.288558 -0.901899 135 135 135
0.005023 0.010948 0.180125 -0.315336 0.402047 -0.859605 130 130 130
0.005070 0.011156 0.180225 -0.314307 0.481072 -0.818401 125 125 125
0.005126 0.011366 0.180343 -0.369367 0.513781 -0.774336 124 124 124
0.005182 0.011577 0.180462 -0.459030 0.471565 -0.752940 126 126 126
0.005225 0.011784 0.180552 -0.564830 0.347638 -0.748408 128 128 128
0.005251 0.011989 0.180608 -0.572883 0.376758 -0.727914 128 128 128
