ply
format ascii 1.0
element vertex 696
property double x
property double y
property double z
property double nx
property double ny
property double nz
property uchar red
property uchar green
property uchar blue
end_header
-0.024584 -0.027607 0.168601 0.209288 0.883419 -0.419249 98 98 98
-0.024469 -0.027457 0.168922 0.281419 0.800721 -0.528818 99 99 99
-0.024383 -0.027300 0.169161 0.410913 0.654419 -0.634734 98 98 98
-0.024304 -0.027140 0.169379 0.463013 0.604599 -0.648135 98 98 98
-0.024237 -0.026978 0.169567 0.486394 0.589149 -0.645233 97 97 97
-0.024162 -0.026816 0.169773 0.488741 0.587774 -0.644712 96 96 96
-0.024089 -0.026654 0.169975 0.476061 0.599161 -0.643718 96 96 96
-0.024011 -0.026493 0.170191 0.449291 0.627283 -0.636124 96 96 96
-0.023928 -0.026333 0.170421 0.408203 0.670043 -0.620010 95 95 95
-0.023838 -0.026173 0.170669 0.340366 0.725872 -0.597712 95 95 95
-0.023752 -0.026013 0.170908 0.313194 0.715478 -0.624501 94 94 94
-0.023674 -0.025850 0.171123 0.288914 0.679794 -0.674098 94 94 94
-0.023605 -0.025685 0.171312 0.268970 0.638690 -0.720923 94 94 94
-0.023545 -0.025517 0.171474 0.255491 0.583563 -0.770829 94 94 94
-0.023495 -0.025347 0.171611 0.249401 0.497973 -0.830555 94 94 94
-0.023458 -0.025174 0.171711 0.255210 0.430122 -0.865946 93 93 93
-0.023423 -0.025000 0.171804 0.253878 0.407179 -0.877355 93 93 93
-0.023389 -0.024826 0.171894 0.264248 0.368025 -0.891477 90 90 90
-0.023361 -0.024650 0.171967 0.266300 0.381116 -0.885345 95 95 95
-0.023323 -0.024477 0.172067 0.270415 0.448068 -0.852121 96 96 96
-0.023282 -0.024304 0.172177 0.265493 0.518004 -0.813133 96 96 96
-0.023228 -0.024133 0.172322 0.260050 0.602645 -0.754448 98 98 98
-0.023165 -0.023963 0.172494 0.257424 0.646741 -0.717955 99 99 99
-0.023097 -0.023795 0.172676 0.254810 0.665505 -0.701552 100 100 100
-0.023027 -0.023626 0.172865 0.262341 0.646301 -0.716570 101 101 101
-0.022966 -0.023455 0.173031 0.272877 0.599000 -0.752820 102 102 102
-0.022910 -0.023283 0.173182 0.284842 0.559334 -0.778467 101 101 101
-0.022858 -0.023110 0.173319 0.298770 0.485884 -0.821373 104 104 104
-0.022819 -0.022935 0.173423 0.312401 0.370931 -0.874537 104 104 104
-0.022790 -0.022757 0.173496 0.322557 0.278877 -0.904536 103 103 103
-0.022767 -0.022579 0.173553 0.331054 0.169207 -0.928317 101 101 101
-0.022756 -0.022398 0.173575 0.335921 0.093006 -0.937287 102 102 102
-0.022745 -0.022217 0.173600 0.343219 0.111919 -0.932563 102 102 102
-0.022731 -0.022036 0.173630 0.342854 0.150562 -0.927244 101 101 101
-0.022713 -0.021856 0.173674 0.332490 0.254201 -0.908203 102 102 102
-0.022682 -0.021678 0.173751 0.311919 0.325798 -0.892503 103 103 103
-0.022651 -0.021500 0.173831 0.293426 0.375599 -0.879105 102 102 102
-0.022612 -0.021323 0.173932 0.265921 0.408557 -0.873137 102 102 102
-0.022574 -0.021146 0.174028 0.238235 0.411329 -0.879802 101 101 101
-0.022537 -0.020968 0.174126 0.206293 0.419763 -0.883879 101 101 101
-0.022499 -0.020790 0.174222 0.178034 0.407921 -0.895491 102 102 102
-0.022465 -0.020612 0.174309 0.163808 0.381745 -0.909636 101 101 101
-0.022433 -0.020433 0.174389 0.165525 0.340409 -0.925594 101 101 101
-0.022407 -0.020253 0.174453 0.187703 0.301482 -0.934813 104 104 104
-0.022382 -0.020073 0.174512 0.211555 0.261147 -0.941832 102 102 102
-0.022360 -0.019892 0.174567 0.254482 0.245207 -0.935474 103 103 103
-0.022334 -0.019712 0.174628 0.316384 0.239079 -0.918010 103 103 103
-0.022310 -0.019531 0.174687 0.374283 0.277563 -0.884800 104 104 104
-0.022273 -0.019352 0.174781 0.431921 0.333499 -0.837987 104 104 104
-0.022234 -0.019173 0.174881 0.490135 0.380561 -0.784182 104 104 104
-0.022190 -0.018994 0.174993 0.527384 0.383973 -0.757913 104 104 104
-0.022144 -0.018816 0.175111 0.552687 0.382373 -0.740491 104 104 104
-0.022096 -0.018637 0.175236 0.567740 0.376347 -0.732143 103 103 103
-0.022048 -0.018459 0.175361 0.574312 0.364429 -0.733046 104 104 104
-0.022002 -0.018279 0.175478 0.570737 0.355609 -0.740136 105 105 105
-0.021955 -0.018100 0.175600 0.559690 0.339715 -0.755871 106 106 106
-0.021914 -0.017920 0.175705 0.541994 0.290696 -0.788504 107 107 107
-0.021877 -0.017739 0.175797 0.517511 0.257665 -0.815960 108 108 108
-0.021847 -0.017557 0.175869 0.473798 0.224245 -0.851604 108 108 108
-0.021820 -0.017375 0.175935 0.430053 0.204041 -0.879444 108 108 108
-0.021797 -0.017192 0.175989 0.386616 0.169731 -0.906488 108 108 108
-0.021778 -0.017009 0.176031 0.348192 0.162347 -0.923258 108 108 108
-0.021759 -0.016826 0.176074 0.306989 0.156722 -0.938720 108 108 108
-0.021742 -0.016642 0.176109 0.269030 0.140610 -0.952813 109 109 109
-0.021726 -0.016458 0.176142 0.232701 0.154334 -0.960225 109 109 109
-0.021709 -0.016274 0.176180 0.191701 0.187932 -0.963292 109 109 109
-0.021689 -0.016091 0.176225 0.144415 0.220410 -0.964657 109 109 109
-0.021667 -0.015907 0.176275 0.114621 0.305417 -0.945295 110 110 110
-0.021638 -0.015724 0.176344 0.033858 0.356711 -0.933601 109 109 109
-0.021606 -0.015541 0.176423 -0.031589 0.395758 -0.917811 110 110 110
-0.021571 -0.015358 0.176508 -0.090479 0.448286 -0.889299 110 110 110
-0.021531 -0.015176 0.176608 -0.143768 0.486721 -0.861646 110 110 110
-0.021491 -0.014993 0.176709 -0.173942 0.523419 -0.834132 110 110 110
-0.021445 -0.014810 0.176825 -0.193779 0.548237 -0.813564 109 109 109
-0.021400 -0.014627 0.176940 -0.193134 0.556639 -0.807993 110 110 110
-0.021353 -0.014444 0.177059 -0.172952 0.567636 -0.804908 108 108 108
-0.021306 -0.014261 0.177179 -0.139437 0.547943 -0.824812 111 111 111
-0.021263 -0.014077 0.177287 -0.086894 0.518031 -0.850937 110 110 110
-0.021222 -0.013893 0.177391 -0.028627 0.488043 -0.872350 109 109 109
-0.021183 -0.013709 0.177486 0.036702 0.456103 -0.889170 106 106 106
-0.021147 -0.013524 0.177577 0.100408 0.427229 -0.898551 108 108 108
-0.021111 -0.013339 0.177664 0.156628 0.373785 -0.914195 103 103 103
-0.021081 -0.013154 0.177735 0.208646 0.314644 -0.925995 107 107 107
-0.021054 -0.012969 0.177799 0.249016 0.283257 -0.926151 109 109 109
-0.021028 -0.012783 0.177860 0.279483 0.231507 -0.931823 110 110 110
-0.021008 -0.012597 0.177904 0.307868 0.187850 -0.932700 112 112 112
-0.020989 -0.012410 0.177946 0.329212 0.168455 -0.929108 112 112 112
-0.020971 -0.012224 0.177983 0.348183 0.137548 -0.927281 113 113 113
-0.020957 -0.012038 0.178012 0.364137 0.103607 -0.925565 113 113 113
-0.020944 -0.011851 0.178035 0.378196 0.079853 -0.922275 111 111 111
-0.020933 -0.011664 0.178053 0.391004 0.079431 -0.916955 112 112 112
-0.020921 -0.011477 0.178076 0.400150 0.074311 -0.913432 113 113 113
-0.020910 -0.011290 0.178093 0.409784 0.069727 -0.909514 112 112 112
-0.020899 -0.011103 0.178113 0.416593 0.087957 -0.904828 113 113 113
-0.020885 -0.010916 0.178141 0.419014 0.103796 -0.902027 114 114 114
-0.020870 -0.010729 0.178170 0.418054 0.103147 -0.902547 114 114 114
-0.020855 -0.010542 0.178199 0.413623 0.105048 -0.904368 114 114 114
-0.020840 -0.010355 0.178230 0.405124 0.102236 -0.908528 115 115 115
-0.020825 -0.010168 0.178258 0.395318 0.099214 -0.913170 114 114 114
-0.020810 -0.009981 0.178287 0.381714 0.088955 -0.919990 112 112 112
-0.020798 -0.009794 0.178311 0.367286 0.050501 -0.928736 111 111 111
-0.020789 -0.009606 0.178322 0.353708 0.012374 -0.935274 111 111 111
-0.020783 -0.009419 0.178327 0.338949 -0.027700 -0.940397 111 111 111
-0.020781 -0.009231 0.178320 0.328792 -0.058881 -0.942565 113 113 113
-0.020781 -0.009044 0.178309 0.324153 -0.072435 -0.943227 112 112 112
-0.020784 -0.008856 0.178288 0.323204 -0.083971 -0.942596 113 113 113
-0.020785 -0.008669 0.178272 0.325881 -0.077086 -0.942263 113 113 113
-0.020789 -0.008482 0.178252 0.338595 -0.080742 -0.937462 113 113 113
-0.020791 -0.008294 0.178233 0.357358 -0.065297 -0.931682 114 114 114
-0.020792 -0.008107 0.178219 0.375604 -0.067197 -0.924341 113 113 113
-0.020795 -0.007920 0.178198 0.395963 -0.063722 -0.916053 113 113 113
-0.020795 -0.007732 0.178187 0.410130 -0.038981 -0.911194 114 114 114
-0.020794 -0.007545 0.178178 0.421143 -0.043105 -0.905970 114 114 114
-0.020794 -0.007358 0.178166 0.425691 -0.060161 -0.902867 115 115 115
-0.020795 -0.007170 0.178149 0.422282 -0.078131 -0.903091 115 115 115
-0.020798 -0.006983 0.178131 0.408242 -0.103383 -0.907001 114 114 114
-0.020803 -0.006796 0.178104 0.384510 -0.139429 -0.912530 113 113 113
-0.020811 -0.006609 0.178072 0.350465 -0.166195 -0.921712 113 113 113
-0.020820 -0.006422 0.178035 0.307644 -0.192050 -0.931918 115 115 115
-0.020831 -0.006235 0.177992 0.260972 -0.222585 -0.939335 115 115 115
-0.020844 -0.006049 0.177944 0.213872 -0.252631 -0.943629 114 114 114
-0.020859 -0.005862 0.177889 0.173380 -0.272239 -0.946480 113 113 113
-0.020875 -0.005676 0.177833 0.138936 -0.292159 -0.946224 113 113 113
-0.020894 -0.005490 0.177769 0.119669 -0.305461 -0.944655 113 113 113
-0.020913 -0.005304 0.177706 0.109549 -0.324345 -0.939574 113 113 113
-0.020936 -0.005118 0.177631 0.117385 -0.357963 -0.926328 113 113 113
-0.020960 -0.004933 0.177550 0.136323 -0.366991 -0.920181 113 113 113
-0.020986 -0.004747 0.177467 0.162282 -0.392723 -0.905225 112 112 112
-0.021017 -0.004563 0.177370 0.194811 -0.424465 -0.884239 112 112 112
-0.021050 -0.004378 0.177266 0.225510 -0.443151 -0.867619 111 111 111
-0.021086 -0.004194 0.177154 0.253736 -0.467707 -0.846681 112 112 112
-0.021126 -0.004010 0.177031 0.281394 -0.484291 -0.828420 111 111 111
-0.021168 -0.003827 0.176904 0.308090 -0.484441 -0.818778 111 111 111
-0.021210 -0.003644 0.176775 0.341677 -0.482016 -0.806794 111 111 111
-0.021251 -0.003461 0.176650 0.362957 -0.461445 -0.809525 110 110 110
-0.021291 -0.003278 0.176530 0.382993 -0.427077 -0.819098 111 111 111
-0.021325 -0.003095 0.176422 0.402536 -0.383241 -0.831319 111 111 111
-0.021356 -0.002912 0.176327 0.419110 -0.333061 -0.844640 110 110 110
-0.021381 -0.002728 0.176247 0.434452 -0.290899 -0.852425 110 110 110
-0.021403 -0.002545 0.176175 0.447356 -0.246731 -0.859649 108 108 108
-0.021419 -0.002360 0.176120 0.459633 -0.197194 -0.865940 106 106 106
-0.021431 -0.002176 0.176075 0.468884 -0.134707 -0.872927 107 107 107
-0.021436 -0.001991 0.176052 0.476772 -0.091280 -0.874275 106 106 106
-0.021439 -0.001805 0.176033 0.479571 -0.073414 -0.874427 109 109 109
-0.021440 -0.001619 0.176020 0.480297 -0.041302 -0.876133 110 110 110
-0.021438 -0.001433 0.176017 0.482243 -0.017735 -0.875858 110 110 110
-0.021434 -0.001247 0.176020 0.479376 0.008669 -0.877567 111 111 111
-0.021427 -0.001061 0.176030 0.468042 0.028766 -0.883238 111 111 111
-0.021418 -0.000874 0.176044 0.453020 0.032801 -0.890897 112 112 112
-0.021410 -0.000687 0.176057 0.433502 0.024227 -0.900827 111 111 111
-0.021403 -0.000500 0.176067 0.407084 -0.000249 -0.913391 112 112 112
-0.021399 -0.000314 0.176069 0.372135 -0.048698 -0.926900 112 112 112
-0.021401 -0.000128 0.176057 0.330975 -0.093989 -0.938947 111 111 111
-0.021404 0.000057 0.176038 0.287938 -0.079030 -0.954382 114 114 114
-0.021409 0.000243 0.176015 0.234494 -0.114898 -0.965304 113 113 113
-0.021418 0.000427 0.175983 0.168421 -0.126149 -0.977610 112 112 112
-0.021425 0.000612 0.175955 0.106453 -0.135363 -0.985061 111 111 111
-0.021434 0.000797 0.175921 0.041734 -0.125749 -0.991184 112 112 112
-0.021440 0.000982 0.175897 -0.009530 -0.085212 -0.996317 112 112 112
-0.021443 0.001168 0.175881 -0.027887 -0.039679 -0.998823 110 110 110
-0.021440 0.001354 0.175882 -0.058388 0.048147 -0.997132 111 111 111
-0.021430 0.001541 0.175901 -0.073643 0.063120 -0.995285 108 108 108
-0.021424 0.001728 0.175909 -0.064222 0.050350 -0.996665 109 109 109
-0.021418 0.001915 0.175921 -0.049367 0.042757 -0.997865 108 108 108
-0.021413 0.002102 0.175927 -0.022863 0.002490 -0.999736 107 107 107
-0.021412 0.002289 0.175923 -0.013742 -0.041434 -0.999047 107 107 107
-0.021416 0.002474 0.175905 0.020401 -0.119646 -0.992607 107 107 107
-0.021425 0.002659 0.175871 0.057164 -0.184743 -0.981123 107 107 107
-0.021438 0.002842 0.175828 0.089978 -0.248244 -0.964510 110 110 110
-0.021458 0.003025 0.175766 0.123423 -0.319092 -0.939653 107 107 107
-0.021483 0.003207 0.175690 0.153829 -0.364375 -0.918459 108 108 108
-0.021512 0.003388 0.175605 0.186460 -0.377905 -0.906874 107 107 107
-0.021540 0.003569 0.175520 0.216621 -0.379320 -0.899551 108 108 108
-0.021570 0.003749 0.175430 0.247695 -0.391395 -0.886260 109 109 109
-0.021601 0.003929 0.175336 0.274485 -0.403249 -0.872954 108 108 108
-0.021636 0.004109 0.175235 0.302192 -0.414829 -0.858252 107 107 107
-0.021671 0.004288 0.175131 0.325132 -0.417229 -0.848652 108 108 108
-0.021707 0.004467 0.175026 0.335206 -0.443248 -0.831366 106 106 106
-0.021748 0.004644 0.174904 0.344886 -0.457529 -0.819586 108 108 108
-0.021787 0.004822 0.174790 0.344957 -0.468080 -0.813576 107 107 107
-0.021832 0.004999 0.174660 0.339041 -0.502683 -0.795211 109 109 109
-0.021879 0.005175 0.174526 0.325545 -0.519980 -0.789710 109 109 109
-0.021927 0.005350 0.174386 0.308849 -0.544305 -0.779964 109 109 109
-0.021979 0.005525 0.174237 0.290400 -0.563640 -0.773291 110 110 110
-0.022032 0.005699 0.174086 0.274007 -0.578602 -0.768205 109 109 109
-0.022086 0.005872 0.173931 0.259866 -0.581712 -0.770766 110 110 110
-0.022138 0.006046 0.173782 0.249740 -0.579133 -0.776038 110 110 110
-0.022190 0.006220 0.173633 0.238345 -0.572317 -0.784630 109 109 109
-0.022240 0.006393 0.173491 0.229522 -0.545008 -0.806403 110 110 110
-0.022284 0.006568 0.173364 0.219198 -0.518627 -0.826425 110 110 110
-0.022327 0.006743 0.173242 0.200403 -0.475023 -0.856850 110 110 110
-0.022362 0.006920 0.173143 0.180238 -0.456962 -0.871034 110 110 110
-0.022399 0.007096 0.173037 0.147208 -0.446502 -0.882591 111 111 111
-0.022431 0.007272 0.172945 0.120222 -0.419842 -0.899599 110 110 110
-0.022462 0.007450 0.172857 0.091348 -0.403836 -0.910259 110 110 110
-0.022490 0.007627 0.172776 0.067501 -0.398193 -0.914815 110 110 110
-0.022519 0.007804 0.172693 0.050521 -0.403929 -0.913394 111 111 111
-0.022548 0.007982 0.172612 0.045976 -0.386474 -0.921154 112 112 112
-0.022574 0.008159 0.172539 0.063587 -0.296284 -0.952981 111 111 111
-0.022589 0.008340 0.172495 0.108865 -0.187068 -0.976296 113 113 113
-0.022599 0.008522 0.172469 0.123851 -0.070645 -0.989783 116 116 116
-0.022593 0.008707 0.172484 0.192330 0.047910 -0.980160 115 115 115
-0.022588 0.008893 0.172500 0.259226 0.019501 -0.965620 113 113 113
-0.022588 0.009077 0.172499 0.309987 -0.095531 -0.945929 108 108 108
-0.022606 0.009257 0.172448 0.335409 -0.357961 -0.871415 103 103 103
-0.022651 0.009429 0.172324 0.307737 -0.549691 -0.776619 100 100 100
-0.022732 0.009592 0.172099 0.241291 -0.816837 -0.523981 99 99 99
-0.022854 0.009744 0.171759 0.168463 -0.904912 -0.390839 98 98 98
-0.023041 0.009877 0.171239 0.136864 -0.939877 -0.312890 100 100 100
-0.023273 0.009997 0.170595 0.084027 -0.969185 -0.231558 99 99 99
-0.023554 0.010103 0.169813 -0.031895 0.995730 -0.086631 96 96 96
-0.023868 0.010197 0.168937 -0.032183 0.995644 -0.087506 95 95 95
-0.024186 0.010289 0.168052 -0.032483 0.995561 -0.088331 94 94 94
-0.024494 0.010383 0.167194 -0.032797 0.995478 -0.089156 93 93 93
-0.024778 0.010482 0.166408 -0.033119 0.995392 -0.089990 92 92 92
-0.025022 0.010591 0.165729 -0.040157 -0.978292 -0.203302 96 96 96
-0.025225 0.010710 0.165167 -0.015149 -0.979711 -0.199844 96 96 96
-0.024584 -0.034473 0.167889 0.933689 0.322926 0.154738 45 45 45
-0.024627 -0.034281 0.167776 0.906629 0.386327 0.169631 45 45 45
-0.024820 -0.033687 0.167260 -0.874788 -0.429793 -0.223661 44 44 44
-0.024926 -0.033299 0.166978 -0.951084 -0.177677 -0.252726 44 44 44
-0.024524 -0.032193 0.168152 0.958192 -0.285670 0.016148 44 44 44
-0.024391 -0.031880 0.168537 0.998479 0.046408 -0.029752 44 44 44
-0.024390 -0.031703 0.168542 0.998479 0.046408 -0.029752 47 47 47
-0.024445 -0.031508 0.168392 0.983029 0.183053 0.012060 46 46 46
-0.024541 -0.031302 0.168128 0.918171 0.394537 0.036082 46 46 46
-0.024682 -0.031082 0.167737 0.737468 0.663430 0.126495 46 46 46
-0.024859 -0.030853 0.167244 0.575308 0.794621 0.193901 46 46 46
-0.025064 -0.030616 0.166673 -0.496882 -0.833238 -0.242533 47 47 47
-0.025304 -0.030369 0.166004 -0.209555 -0.909692 -0.358535 51 51 51
-0.025567 -0.030117 0.165269 -0.043637 -0.922433 -0.383684 57 57 57
-0.025818 -0.029870 0.164569 0.093523 -0.904469 -0.416160 66 66 66
-0.026048 -0.029630 0.163926 0.192050 -0.854017 -0.483499 71 71 71
-0.026218 -0.029408 0.163453 0.266210 -0.823256 -0.501380 75 75 75
-0.026337 -0.029201 0.163123 0.458773 -0.515757 -0.723548 79 79 79
-0.026384 -0.029015 0.162992 0.555530 -0.127954 -0.821592 82 82 82
-0.026368 -0.028846 0.163038 0.567584 0.271971 -0.777097 84 84 84
-0.026289 -0.028695 0.163262 0.401149 0.772147 -0.492817 86 86 86
-0.026140 -0.028562 0.163681 0.316499 0.829129 -0.460840 87 87 87
-0.025921 -0.028447 0.164295 0.167468 0.948063 -0.270428 88 88 88
-0.025677 -0.028337 0.164978 0.100220 0.971793 -0.213483 90 90 90
-0.025415 -0.028231 0.165713 0.027936 0.996025 0.084576 92 92 92
-0.025156 -0.028123 0.166438 0.027788 0.996092 0.083831 93 93 93
-0.024910 -0.028010 0.167125 0.053654 0.972577 -0.226309 94 94 94
-0.024689 -0.027890 0.167742 0.099754 0.952529 -0.287641 97 97 97
-0.024502 -0.027760 0.168265 0.161894 0.913052 -0.374334 97 97 97
-0.024347 -0.027621 0.168699 0.223925 0.890891 -0.395185 99 99 99
-0.024221 -0.027474 0.169049 0.294666 0.816873 -0.495873 99 99 99
-0.024124 -0.027319 0.169319 0.419226 0.681150 -0.600237 99 99 99
-0.024036 -0.027162 0.169563 0.471294 0.619891 -0.627390 99 99 99
-0.023962 -0.027000 0.169766 0.496826 0.584002 -0.641954 99 99 99
-0.023889 -0.026838 0.169970 0.494240 0.584062 -0.643893 99 99 99
-0.023818 -0.026676 0.170165 0.485136 0.582418 -0.652252 99 99 99
-0.023745 -0.026513 0.170366 0.461984 0.601564 -0.651683 98 98 98
-0.023667 -0.026351 0.170580 0.427601 0.637202 -0.641195 98 98 98
-0.023585 -0.026190 0.170808 0.358702 0.691308 -0.627237 97 97 97
-0.023505 -0.026027 0.171026 0.332740 0.681007 -0.652314 97 97 97
-0.023434 -0.025863 0.171222 0.338443 0.632675 -0.696548 97 97 97
-0.023369 -0.025696 0.171398 0.316506 0.598336 -0.736083 97 97 97
-0.023314 -0.025528 0.171549 0.310663 0.547298 -0.777144 96 96 96
-0.023265 -0.025357 0.171680 0.311435 0.468943 -0.826499 98 98 98
-0.023229 -0.025184 0.171777 0.313947 0.404833 -0.858806 97 97 97
-0.023194 -0.025010 0.171871 0.313808 0.391721 -0.864916 96 96 96
-0.023159 -0.024836 0.171963 0.324415 0.359720 -0.874847 98 98 98
-0.023129 -0.024661 0.172042 0.325739 0.371175 -0.869554 98 98 98
-0.023090 -0.024487 0.172144 0.326861 0.434006 -0.839524 97 97 97
-0.023047 -0.024314 0.172258 0.317881 0.505439 -0.802174 97 97 97
-0.022992 -0.024143 0.172407 0.307449 0.587960 -0.748183 98 98 98
-0.022928 -0.023974 0.172579 0.298910 0.630854 -0.716014 98 98 98
-0.022860 -0.023805 0.172763 0.289391 0.651118 -0.701640 98 98 98
-0.022790 -0.023636 0.172952 0.281137 0.631818 -0.722335 99 99 99
-0.022729 -0.023465 0.173118 0.286343 0.591990 -0.753363 98 98 98
-0.022671 -0.023294 0.173272 0.289787 0.553880 -0.780538 98 98 98
-0.022620 -0.023120 0.173408 0.293857 0.476711 -0.828489 97 97 97
-0.022580 -0.022945 0.173511 0.300933 0.363480 -0.881658 97 97 97
-0.022552 -0.022767 0.173582 0.306537 0.278974 -0.910060 95 95 95
-0.022529 -0.022588 0.173641 0.309746 0.170414 -0.935423 96 96 96
-0.022518 -0.022407 0.173664 0.318559 0.106628 -0.941887 99 99 99
-0.022505 -0.022226 0.173692 0.316012 0.112840 -0.942021 98 98 98
-0.022494 -0.022045 0.173716 0.310293 0.143584 -0.939735 101 101 101
-0.022476 -0.021865 0.173757 0.301885 0.251785 -0.919494 102 102 102
-0.022448 -0.021686 0.173827 0.264677 0.309050 -0.913474 103 103 103
-0.022419 -0.021508 0.173900 0.236263 0.362042 -0.901724 103 103 103
-0.022384 -0.021330 0.173991 0.195755 0.392474 -0.898690 103 103 103
-0.022349 -0.021152 0.174078 0.158063 0.392171 -0.906211 103 103 103
-0.022315 -0.020974 0.174166 0.118748 0.403126 -0.907408 104 104 104
-0.022280 -0.020796 0.174254 0.085633 0.399372 -0.912781 105 105 105
-0.022248 -0.020617 0.174336 0.068950 0.387085 -0.919463 106 106 106
-0.022216 -0.020438 0.174415 0.072855 0.366038 -0.927744 105 105 105
-0.022188 -0.020258 0.174485 0.103420 0.349900 -0.931061 105 105 105
-0.022160 -0.020078 0.174554 0.131189 0.327510 -0.935696 105 105 105
-0.022132 -0.019898 0.174623 0.182655 0.336056 -0.923961 106 106 106
-0.022099 -0.019719 0.174706 0.252071 0.347346 -0.903222 106 106 106
-0.022066 -0.019539 0.174789 0.315309 0.389195 -0.865510 106 106 106
-0.022020 -0.019361 0.174908 0.375483 0.436928 -0.817378 107 107 107
-0.021971 -0.019183 0.175033 0.444588 0.429901 -0.785829 107 107 107
-0.021919 -0.019005 0.175170 0.485279 0.423858 -0.764754 107 107 107
-0.021867 -0.018827 0.175305 0.513172 0.407929 -0.755148 107 107 107
-0.021815 -0.018649 0.175439 0.531334 0.389160 -0.752488 107 107 107
-0.021765 -0.018470 0.175568 0.534754 0.394534 -0.747249 107 107 107
-0.021721 -0.018291 0.175680 0.533918 0.364852 -0.762767 107 107 107
-0.021678 -0.018111 0.175791 0.523986 0.305911 -0.794894 107 107 107
-0.021641 -0.017930 0.175883 0.508979 0.253612 -0.822570 106 106 106
-0.021611 -0.017748 0.175957 0.478632 0.205503 -0.853627 108 108 108
-0.021588 -0.017565 0.176010 0.445552 0.165093 -0.879902 108 108 108
-0.021568 -0.017382 0.176056 0.406603 0.143104 -0.902328 108 108 108
-0.021551 -0.017198 0.176093 0.370602 0.115688 -0.921559 108 108 108
-0.021537 -0.017014 0.176121 0.342227 0.118655 -0.932095 109 109 109
-0.021521 -0.016831 0.176153 0.312726 0.114350 -0.942935 108 108 108
-0.021508 -0.016646 0.176178 0.287254 0.098245 -0.952803 108 108 108
-0.021496 -0.016462 0.176201 0.272602 0.127578 -0.953631 107 107 107
-0.021482 -0.016278 0.176230 0.230175 0.138829 -0.963196 109 109 109
-0.021466 -0.016094 0.176264 0.191421 0.163083 -0.967865 108 108 108
-0.021448 -0.015910 0.176303 0.162281 0.240100 -0.957088 109 109 109
-0.021424 -0.015726 0.176358 0.084491 0.285718 -0.954582 111 111 111
-0.021397 -0.015543 0.176423 0.014110 0.321012 -0.946970 111 111 111
-0.021368 -0.015359 0.176491 -0.057470 0.378092 -0.923983 110 110 110
-0.021333 -0.015176 0.176577 -0.127551 0.431628 -0.892988 111 111 111
-0.021296 -0.014993 0.176668 -0.178910 0.485039 -0.855995 111 111 111
-0.021253 -0.014810 0.176776 -0.218459 0.524981 -0.822600 111 111 111
-0.021209 -0.014627 0.176887 -0.235094 0.551148 -0.800604 111 111 111
-0.021162 -0.014444 0.177006 -0.231293 0.578235 -0.782399 111 111 111
-0.021113 -0.014261 0.177132 -0.215726 0.576343 -0.788220 112 112 112
-0.021066 -0.014078 0.177250 -0.181023 0.562520 -0.806723 112 112 112
-0.021021 -0.013894 0.177366 -0.137492 0.545466 -0.826778 109 109 109
-0.020977 -0.013710 0.177475 -0.106480 0.509791 -0.853683 110 110 110
-0.020935 -0.013526 0.177581 -0.044757 0.488974 -0.871149 111 111 111
-0.020894 -0.013341 0.177682 0.039773 0.453243 -0.890499 111 111 111
-0.020860 -0.013156 0.177767 0.096764 0.391847 -0.914928 111 111 111
-0.020828 -0.012970 0.177843 0.143544 0.351839 -0.924989 111 111 111
-0.020799 -0.012784 0.177912 0.181730 0.291504 -0.939148 110 110 110
-0.020776 -0.012598 0.177965 0.217465 0.240797 -0.945900 110 110 110
-0.020754 -0.012412 0.178014 0.245849 0.215842 -0.944971 110 110 110
-0.020733 -0.012226 0.178059 0.270458 0.179929 -0.945768 109 109 109
-0.020716 -0.012039 0.178095 0.290979 0.136925 -0.946880 109 109 109
-0.020702 -0.011852 0.178122 0.309742 0.110230 -0.944409 107 107 107
-0.020689 -0.011665 0.178147 0.325185 0.106947 -0.939583 109 109 109
-0.020675 -0.011479 0.178174 0.337296 0.097429 -0.936344 108 108 108
-0.020663 -0.011292 0.178196 0.350101 0.092203 -0.932163 109 109 109
-0.020650 -0.011104 0.178220 0.359410 0.106634 -0.927067 108 108 108
-0.020635 -0.010917 0.178249 0.363639 0.116867 -0.924180 110 110 110
-0.020620 -0.010730 0.178280 0.363964 0.108774 -0.925040 111 111 111
-0.020606 -0.010543 0.178306 0.360487 0.103308 -0.927026 111 111 111
-0.020591 -0.010356 0.178335 0.352467 0.096572 -0.930828 112 112 112
-0.020578 -0.010168 0.178358 0.342459 0.089135 -0.935295 112 112 112
-0.020565 -0.009981 0.178382 0.328540 0.074971 -0.941510 113 113 113
-0.020555 -0.009794 0.178400 0.312924 0.033548 -0.949186 113 113 113
-0.020548 -0.009606 0.178406 0.297837 -0.006464 -0.954595 113 113 113
-0.020544 -0.009418 0.178405 0.280896 -0.046118 -0.958630 114 114 114
-0.020544 -0.009231 0.178393 0.276957 -0.065832 -0.958625 116 116 116
-0.020545 -0.009043 0.178379 0.263864 -0.086735 -0.960652 113 113 113
-0.020549 -0.008856 0.178357 0.260410 -0.089816 -0.961311 114 114 114
-0.020549 -0.008668 0.178343 0.259703 -0.072943 -0.962930 113 113 113
-0.020551 -0.008481 0.178326 0.269481 -0.064996 -0.960810 114 114 114
-0.020551 -0.008293 0.178314 0.284859 -0.043838 -0.957566 114 114 114
-0.020549 -0.008106 0.178307 0.299990 -0.048777 -0.952695 113 113 113
-0.020551 -0.007918 0.178292 0.318111 -0.045286 -0.946971 113 113 113
-0.020548 -0.007731 0.178287 0.330523 -0.022732 -0.943524 115 115 115
-0.020546 -0.007543 0.178281 0.340513 -0.035600 -0.939566 114 114 114
-0.020545 -0.007356 0.178271 0.343549 -0.066843 -0.936753 116 116 116
-0.020548 -0.007168 0.178252 0.338867 -0.101154 -0.935381 115 115 115
-0.020552 -0.006981 0.178228 0.321887 -0.142310 -0.936022 114 114 114
-0.020561 -0.006794 0.178191 0.294959 -0.196175 -0.935155 114 114 114
-0.020574 -0.006607 0.178145 0.258264 -0.231051 -0.938038 114 114 114
-0.020587 -0.006420 0.178095 0.214073 -0.260298 -0.941498 112 112 112
-0.020604 -0.006233 0.178038 0.150957 -0.270502 -0.950811 114 114 114
-0.020621 -0.006047 0.177978 0.122789 -0.310408 -0.942640 113 113 113
-0.020640 -0.005860 0.177913 0.073368 -0.307351 -0.948764 113 113 113
-0.020659 -0.005674 0.177850 0.056225 -0.326231 -0.943616 113 113 113
-0.020679 -0.005488 0.177782 0.042574 -0.324511 -0.944923 114 114 114
-0.020698 -0.005302 0.177719 0.037554 -0.326937 -0.944300 114 114 114
-0.020720 -0.005116 0.177647 0.053504 -0.346732 -0.936437 114 114 114
-0.020742 -0.004930 0.177574 0.081896 -0.342606 -0.935903 114 114 114
-0.020764 -0.004745 0.177500 0.117831 -0.360419 -0.925318 114 114 114
-0.020791 -0.004560 0.177414 0.162422 -0.388687 -0.906941 114 114 114
-0.020820 -0.004375 0.177323 0.207005 -0.405247 -0.890463 114 114 114
-0.020852 -0.004190 0.177223 0.249191 -0.428654 -0.868424 114 114 114
-0.020888 -0.004006 0.177112 0.289026 -0.444157 -0.848050 114 114 114
-0.020925 -0.003823 0.176997 0.328066 -0.441033 -0.835381 114 114 114
-0.020963 -0.003639 0.176881 0.364495 -0.428265 -0.826881 114 114 114
-0.021000 -0.003456 0.176768 0.397625 -0.411982 -0.819857 113 113 113
-0.021036 -0.003272 0.176657 0.434275 -0.389956 -0.811997 113 113 113
-0.021068 -0.003089 0.176558 0.454558 -0.333951 -0.825745 113 113 113
-0.021096 -0.002905 0.176469 0.474563 -0.291750 -0.830465 113 113 113
-0.021119 -0.002721 0.176394 0.488366 -0.249618 -0.836176 111 111 111
-0.021139 -0.002537 0.176328 0.499472 -0.209516 -0.840613 112 112 112
-0.021154 -0.002352 0.176275 0.504702 -0.159560 -0.848420 111 111 111
-0.021166 -0.002168 0.176232 0.510090 -0.126559 -0.850759 111 111 111
-0.021171 -0.001982 0.176210 0.509048 -0.089039 -0.856120 111 111 111
-0.021175 -0.001797 0.176189 0.501884 -0.077398 -0.861465 111 111 111
-0.021177 -0.001611 0.176173 0.491333 -0.049259 -0.869578 110 110 110
-0.021176 -0.001425 0.176166 0.478638 -0.038624 -0.877163 109 109 109
-0.021173 -0.001238 0.176164 0.462245 -0.021368 -0.886495 109 109 109
-0.021169 -0.001052 0.176167 0.441018 -0.006171 -0.897477 110 110 110
-0.021163 -0.000865 0.176174 0.415983 -0.006591 -0.909349 110 110 110
-0.021158 -0.000679 0.176178 0.386864 -0.022491 -0.921862 109 109 109
-0.021155 -0.000492 0.176177 0.353310 -0.053987 -0.933947 107 107 107
-0.021156 -0.000306 0.176167 0.313992 -0.111149 -0.942897 106 106 106
-0.021162 -0.000121 0.176141 0.301052 -0.144453 -0.942603 106 106 106
-0.021170 0.000064 0.176109 0.258660 -0.171918 -0.950547 105 105 105
-0.021180 0.000249 0.176072 0.214001 -0.209908 -0.954014 105 105 105
-0.021194 0.000433 0.176025 0.144248 -0.206063 -0.967848 105 105 105
-0.021207 0.000617 0.175981 0.095015 -0.209618 -0.973156 106 106 106
-0.021221 0.000801 0.175934 0.043891 -0.189535 -0.980892 107 107 107
-0.021230 0.000986 0.175900 0.001820 -0.137708 -0.990471 109 109 109
-0.021236 0.001171 0.175875 -0.034844 -0.061956 -0.997470 109 109 109
-0.021236 0.001357 0.175869 -0.048487 0.028345 -0.998422 109 109 109
-0.021228 0.001544 0.175884 -0.071918 0.054692 -0.995910 110 110 110
-0.021222 0.001731 0.175891 -0.077412 0.051452 -0.995671 110 110 110
-0.021215 0.001918 0.175903 -0.076540 0.054785 -0.995560 111 111 111
-0.021210 0.002105 0.175912 -0.067438 0.021772 -0.997486 111 111 111
-0.021207 0.002292 0.175914 -0.045246 -0.030821 -0.998500 111 111 111
-0.021208 0.002478 0.175901 -0.038717 -0.099253 -0.994309 111 111 111
-0.021216 0.002663 0.175874 -0.014202 -0.164030 -0.986353 111 111 111
-0.021226 0.002847 0.175838 0.009062 -0.229388 -0.973293 111 111 111
-0.021244 0.003030 0.175783 0.036731 -0.303739 -0.952047 111 111 111
-0.021266 0.003213 0.175715 0.064680 -0.350388 -0.934369 111 111 111
-0.021291 0.003394 0.175638 0.096167 -0.362183 -0.927133 110 110 110
-0.021316 0.003576 0.175563 0.126658 -0.362808 -0.923216 111 111 111
-0.021343 0.003757 0.175482 0.159604 -0.377144 -0.912299 110 110 110
-0.021371 0.003938 0.175397 0.190248 -0.390409 -0.900770 111 111 111
-0.021402 0.004118 0.175306 0.222553 -0.401891 -0.888231 111 111 111
-0.021434 0.004298 0.175211 0.251630 -0.412520 -0.875505 111 111 111
-0.021469 0.004477 0.175110 0.270955 -0.444498 -0.853818 110 110 110
-0.021509 0.004655 0.174993 0.289402 -0.462789 -0.837898 110 110 110
-0.021547 0.004833 0.174881 0.297930 -0.476276 -0.827284 110 110 110
-0.021591 0.005010 0.174753 0.302311 -0.511641 -0.804258 110 110 110
-0.021638 0.005186 0.174618 0.303754 -0.533472 -0.789393 110 110 110
-0.021688 0.005362 0.174475 0.299916 -0.556362 -0.774927 110 110 110
-0.021741 0.005536 0.174324 0.296291 -0.572615 -0.764410 110 110 110
-0.021794 0.005710 0.174171 0.292762 -0.582946 -0.757934 110 110 110
-0.021850 0.005884 0.174013 0.291010 -0.580013 -0.760853 109 109 109
-0.021903 0.006057 0.173862 0.291341 -0.574067 -0.765224 110 110 110
-0.021956 0.006231 0.173710 0.289594 -0.564824 -0.772728 110 110 110
-0.022006 0.006405 0.173566 0.289938 -0.535564 -0.793163 110 110 110
-0.022052 0.006579 0.173436 0.286462 -0.512837 -0.809282 109 109 109
-0.022097 0.006754 0.173309 0.273697 -0.476794 -0.835319 108 108 108
-0.022134 0.006930 0.173202 0.257853 -0.464784 -0.847047 109 109 109
-0.022175 0.007105 0.173088 0.228846 -0.457718 -0.859141 110 110 110
-0.022210 0.007282 0.172987 0.205350 -0.431528 -0.878416 111 111 111
-0.022244 0.007458 0.172891 0.178261 -0.415799 -0.891815 111 111 111
-0.022275 0.007635 0.172802 0.155525 -0.406666 -0.900242 111 111 111
-0.022306 0.007812 0.172714 0.141575 -0.401298 -0.904940 112 112 112
-0.022336 0.007989 0.172631 0.140100 -0.369274 -0.918699 113 113 113
-0.022361 0.008167 0.172559 0.156977 -0.255120 -0.954082 114 114 114
-0.022373 0.008349 0.172527 0.171596 -0.147757 -0.974024 115 115 115
-0.022378 0.008532 0.172512 0.210954 0.009679 -0.977448 117 117 117
-0.022365 0.008719 0.172547 0.266056 0.125148 -0.955799 115 115 115
-0.022354 0.008906 0.172579 0.322498 0.081173 -0.943083 111 111 111
-0.022349 0.009092 0.172592 0.356409 -0.042032 -0.933384 109 109 109
-0.022364 0.009273 0.172553 0.375865 -0.314125 -0.871809 106 106 106
-0.022406 0.009446 0.172435 0.345311 -0.530603 -0.774094 102 102 102
-0.022490 0.009608 0.172203 0.263893 -0.816084 -0.514167 103 103 103
-0.022617 0.009759 0.171851 0.194916 -0.912659 -0.359250 102 102 102
-0.022804 0.009892 0.171331 0.156358 -0.939903 -0.303535 101 101 101
-0.023040 0.010012 0.170677 0.098642 -0.967689 -0.232051 99 99 99
-0.023330 0.010115 0.169870 0.064749 -0.984657 -0.162043 97 97 97
-0.023652 0.010208 0.168976 -0.032174 0.995645 -0.087497 94 94 94
-0.023980 0.010297 0.168067 -0.032478 0.995561 -0.088333 93 93 93
-0.024295 0.010389 0.167194 -0.032793 0.995477 -0.089158 91 91 91
-0.024579 0.010488 0.166406 -0.033113 0.995393 -0.089974 91 91 91
-0.024825 0.010597 0.165727 0.006315 -0.980240 -0.197711 92 92 92
-0.025024 0.010718 0.165176 0.004435 -0.976839 -0.213931 91 91 91
-0.024513 -0.034435 0.167520 0.933689 0.322926 0.154738 54 54 54
-0.024556 -0.034244 0.167410 0.933689 0.322926 0.154738 53 53 53
-0.024611 -0.034049 0.167265 0.905693 0.390526 0.164950 52 52 52
-0.024668 -0.033854 0.167113 0.889225 0.412688 0.197403 53 53 53
-0.024727 -0.033658 0.166956 -0.873967 -0.415174 -0.252612 52 52 52
-0.024781 -0.033464 0.166812 -0.888561 -0.314614 -0.333882 52 52 52
-0.024812 -0.033278 0.166734 -0.931092 -0.029127 -0.363620 54 54 54
-0.024818 -0.033100 0.166725 -0.932812 0.037700 -0.358387 52 52 52
-0.024791 -0.032933 0.166806 -0.901258 0.331274 -0.279271 52 52 52
-0.024748 -0.032771 0.166933 -0.849255 0.459806 -0.259507 51 51 51
-0.024690 -0.032614 0.167103 -0.834919 0.508940 -0.209498 52 52 52
-0.024622 -0.032459 0.167300 -0.841103 0.518579 -0.153694 52 52 52
-0.024548 -0.032306 0.167514 -0.867359 0.493169 -0.066876 51 51 51
-0.024472 -0.032153 0.167732 -0.920964 0.385280 -0.058173 52 52 52
-0.024397 -0.032000 0.167947 -0.979996 0.152684 -0.127650 53 53 53
-0.024369 -0.031831 0.168030 -0.979776 0.141455 -0.141528 51 51 51
-0.024367 -0.031655 0.168040 0.980879 0.153557 0.119573 52 52 52
-0.024413 -0.031463 0.167916 0.943957 0.310239 0.112678 55 55 55
-0.024496 -0.031261 0.167689 0.845036 0.520170 0.123843 53 53 53
-0.024613 -0.031049 0.167365 0.711066 0.681482 0.173112 51 51 51
-0.024762 -0.030828 0.166952 0.579564 0.792685 0.189093 51 51 51
-0.024943 -0.030598 0.166449 -0.422605 -0.859074 -0.288786 51 51 51
-0.025147 -0.030363 0.165882 -0.211573 -0.896542 -0.389164 53 53 53
-0.025377 -0.030121 0.165242 -0.033185 -0.915354 -0.401280 60 60 60
-0.025594 -0.029883 0.164639 0.113751 -0.885198 -0.451094 66 66 66
-0.025801 -0.029650 0.164064 0.221579 -0.832817 -0.507266 71 71 71
-0.025962 -0.029431 0.163617 0.304463 -0.753382 -0.582853 75 75 75
-0.026070 -0.029227 0.163317 0.484900 -0.477593 -0.732650 79 79 79
-0.026117 -0.029040 0.163189 0.587283 0.097279 -0.803514 83 83 83
-0.026106 -0.028870 0.163219 0.588543 0.204044 -0.782293 86 86 86
-0.026035 -0.028716 0.163420 0.498832 0.599510 -0.625903 87 87 87
-0.025897 -0.028580 0.163806 0.274269 0.884162 -0.378199 89 89 89
-0.025693 -0.028460 0.164378 0.198974 0.931133 -0.305615 91 91 91
-0.025463 -0.028347 0.165022 0.129979 0.962287 -0.238977 92 92 92
-0.025205 -0.028240 0.165742 0.066080 0.980645 -0.184307 93 93 93
-0.024948 -0.028131 0.166459 0.066233 0.979414 -0.190685 94 94 94
-0.024702 -0.028018 0.167145 0.074698 0.970991 -0.227148 95 95 95
-0.024473 -0.027899 0.167783 0.116489 0.961374 -0.249382 97 97 97
-0.024276 -0.027772 0.168333 0.149178 0.938886 -0.310224 98 98 98
-0.024110 -0.027635 0.168796 0.234365 0.894851 -0.379888 98 98 98
-0.023974 -0.027490 0.169172 0.292682 0.833270 -0.469039 99 99 99
-0.023867 -0.027338 0.169469 0.368862 0.755599 -0.541305 99 99 99
-0.023770 -0.027182 0.169737 0.458336 0.645522 -0.610925 96 96 96
-0.023693 -0.027022 0.169952 0.486061 0.592638 -0.642280 96 96 96
-0.023620 -0.026859 0.170151 0.487617 0.577431 -0.654831 96 96 96
-0.023551 -0.026696 0.170341 0.479403 0.571050 -0.666389 96 96 96
-0.023482 -0.026532 0.170531 0.459261 0.582924 -0.670283 97 97 97
-0.023409 -0.026369 0.170731 0.427672 0.612985 -0.664339 97 97 97
-0.023332 -0.026206 0.170942 0.391801 0.637896 -0.663009 97 97 97
-0.023257 -0.026042 0.171148 0.367137 0.634328 -0.680322 97 97 97
-0.023189 -0.025877 0.171334 0.341062 0.610246 -0.715036 97 97 97
-0.023127 -0.025710 0.171502 0.331534 0.570344 -0.751527 97 97 97
-0.023073 -0.025540 0.171647 0.330668 0.523256 -0.785405 97 97 97
-0.023026 -0.025369 0.171776 0.336693 0.450341 -0.826940 96 96 96
-0.022990 -0.025196 0.171871 0.349962 0.397400 -0.848292 97 97 97
-0.022954 -0.025022 0.171966 0.354131 0.389860 -0.850059 98 98 98
-0.022918 -0.024848 0.172060 0.371119 0.366232 -0.853314 97 97 97
-0.022888 -0.024673 0.172142 0.371949 0.368741 -0.851871 98 98 98
-0.022849 -0.024499 0.172243 0.373854 0.423038 -0.825392 100 100 100
-0.022806 -0.024326 0.172356 0.364078 0.491957 -0.790838 100 100 100
-0.022751 -0.024155 0.172505 0.362776 0.541515 -0.758390 102 102 102
-0.022688 -0.023985 0.172674 0.342902 0.591430 -0.729814 102 102 102
-0.022622 -0.023816 0.172851 0.323738 0.616602 -0.717632 101 101 101
-0.022555 -0.023646 0.173034 0.304929 0.613665 -0.728309 101 101 101
-0.022494 -0.023475 0.173196 0.298989 0.579274 -0.758318 102 102 102
-0.022438 -0.023303 0.173347 0.289196 0.544100 -0.787604 102 102 102
-0.022387 -0.023129 0.173481 0.281677 0.469118 -0.837010 102 102 102
-0.022349 -0.022953 0.173580 0.278329 0.358374 -0.891123 102 102 102
-0.022321 -0.022775 0.173651 0.273723 0.279007 -0.920451 103 103 103
-0.022297 -0.022596 0.173709 0.261800 0.167821 -0.950419 103 103 103
-0.022286 -0.022415 0.173732 0.259747 0.107477 -0.959677 103 103 103
-0.022274 -0.022234 0.173760 0.250714 0.111182 -0.961655 103 103 103
-0.022262 -0.022053 0.173785 0.241221 0.133949 -0.961182 103 103 103
-0.022246 -0.021872 0.173822 0.218776 0.226180 -0.949200 103 103 103
-0.022221 -0.021693 0.173885 0.181630 0.289788 -0.939699 103 103 103
-0.022194 -0.021514 0.173950 0.150160 0.343590 -0.927037 103 103 103
-0.022162 -0.021336 0.174032 0.107674 0.371822 -0.922039 100 100 100
-0.022131 -0.021157 0.174108 0.069145 0.368228 -0.927161 103 103 103
-0.022101 -0.020978 0.174184 0.036091 0.385096 -0.922170 102 102 102
-0.022070 -0.020800 0.174264 0.013291 0.394247 -0.918909 101 101 101
-0.022039 -0.020620 0.174339 0.010887 0.397690 -0.917455 103 103 103
-0.022008 -0.020441 0.174417 0.017300 0.389695 -0.920781 103 103 103
-0.021978 -0.020262 0.174492 0.041095 0.379707 -0.924194 103 103 103
-0.021946 -0.020082 0.174572 0.086916 0.383051 -0.919629 103 103 103
-0.021912 -0.019903 0.174656 0.143686 0.409775 -0.900799 106 106 106
-0.021872 -0.019724 0.174759 0.212469 0.434252 -0.875375 106 106 106
-0.021830 -0.019546 0.174867 0.271768 0.476198 -0.836288 106 106 106
-0.021775 -0.019369 0.175009 0.327005 0.517594 -0.790673 105 105 105
-0.021718 -0.019192 0.175159 0.393733 0.509667 -0.764993 107 107 107
-0.021657 -0.019015 0.175319 0.433015 0.489899 -0.756635 108 108 108
-0.021599 -0.018838 0.175470 0.462400 0.460174 -0.757909 109 109 109
-0.021543 -0.018660 0.175615 0.484050 0.424137 -0.765378 109 109 109
-0.021492 -0.018481 0.175748 0.495645 0.383147 -0.779445 109 109 109
-0.021449 -0.018301 0.175857 0.494093 0.338293 -0.800893 109 109 109
-0.021408 -0.018120 0.175960 0.488606 0.288232 -0.823521 109 109 109
-0.021376 -0.017939 0.176040 0.479614 0.217099 -0.850199 110 110 110
-0.021350 -0.017756 0.176100 0.466264 0.169771 -0.868203 109 109 109
-0.021333 -0.017572 0.176137 0.447557 0.122621 -0.885809 110 110 110
-0.021319 -0.017389 0.176167 0.424838 0.100107 -0.899717 109 109 109
-0.021306 -0.017204 0.176191 0.413053 0.091626 -0.906086 109 109 109
-0.021295 -0.017020 0.176210 0.389697 0.090999 -0.916436 109 109 109
-0.021282 -0.016836 0.176236 0.372870 0.090706 -0.923440 109 109 109
-0.021272 -0.016651 0.176253 0.352140 0.070567 -0.933283 109 109 109
-0.021262 -0.016466 0.176271 0.328559 0.082537 -0.940870 108 108 108
-0.021250 -0.016282 0.176293 0.301534 0.103260 -0.947847 107 107 107
-0.021237 -0.016098 0.176317 0.246134 0.098969 -0.964170 107 107 107
-0.021223 -0.015913 0.176345 0.193049 0.145991 -0.970267 109 109 109
-0.021204 -0.015729 0.176387 0.122414 0.197116 -0.972708 109 109 109
-0.021182 -0.015545 0.176436 0.037242 0.224293 -0.973810 108 108 108
-0.021160 -0.015361 0.176487 -0.052389 0.282167 -0.957934 108 108 108
-0.021132 -0.015177 0.176554 -0.143358 0.351909 -0.924991 109 109 109
-0.021100 -0.014994 0.176631 -0.213615 0.424061 -0.880080 110 110 110
-0.021062 -0.014811 0.176725 -0.268606 0.482124 -0.833911 109 109 109
-0.021021 -0.014627 0.176828 -0.297211 0.528408 -0.795268 109 109 109
-0.020975 -0.014444 0.176943 -0.303565 0.572848 -0.761376 108 108 108
-0.020925 -0.014261 0.177070 -0.286772 0.586133 -0.757767 108 108 108
-0.020877 -0.014078 0.177194 -0.260158 0.578872 -0.772803 106 106 106
-0.020827 -0.013894 0.177318 -0.223766 0.589237 -0.776356 109 109 109
-0.020780 -0.013710 0.177439 -0.197271 0.565401 -0.800878 110 110 110
-0.020732 -0.013526 0.177561 -0.135220 0.553555 -0.821762 110 110 110
-0.020686 -0.013342 0.177677 -0.043070 0.523118 -0.851171 111 111 111
-0.020646 -0.013157 0.177775 -0.007117 0.443528 -0.896232 112 112 112
-0.020610 -0.012971 0.177864 0.051999 0.398606 -0.915647 112 112 112
-0.020577 -0.012786 0.177944 0.118912 0.348644 -0.929681 112 112 112
-0.020550 -0.012600 0.178007 0.145783 0.277115 -0.949713 111 111 111
-0.020525 -0.012414 0.178063 0.180089 0.249027 -0.951606 112 112 112
-0.020502 -0.012227 0.178116 0.219831 0.222141 -0.949909 113 113 113
-0.020483 -0.012040 0.178157 0.243041 0.171013 -0.954822 113 113 113
-0.020467 -0.011854 0.178189 0.256939 0.132961 -0.957238 113 113 113
-0.020452 -0.011667 0.178219 0.273154 0.127497 -0.953484 113 113 113
-0.020437 -0.011480 0.178249 0.293809 0.123878 -0.947803 112 112 112
-0.020423 -0.011293 0.178276 0.301808 0.110392 -0.946956 112 112 112
-0.020409 -0.011105 0.178303 0.314340 0.121761 -0.941469 112 112 112
-0.020393 -0.010918 0.178335 0.326001 0.132759 -0.936001 111 111 111
-0.020377 -0.010731 0.178367 0.327449 0.117196 -0.937573 111 111 111
-0.020363 -0.010544 0.178393 0.324758 0.103441 -0.940124 112 112 112
-0.020350 -0.010356 0.178419 0.317028 0.091075 -0.944033 113 113 113
-0.020338 -0.010169 0.178441 0.306111 0.077945 -0.948800 112 112 112
-0.020326 -0.009981 0.178461 0.290621 0.057759 -0.955093 112 112 112
-0.020317 -0.009793 0.178475 0.272344 0.012315 -0.962121 111 111 111
-0.020312 -0.009606 0.178475 0.253866 -0.031246 -0.966734 112 112 112
-0.020310 -0.009418 0.178470 0.232954 -0.071909 -0.969825 113 113 113
-0.020311 -0.009230 0.178454 0.226051 -0.087846 -0.970146 111 111 111
-0.020313 -0.009043 0.178438 0.207811 -0.103250 -0.972704 109 109 109
-0.020317 -0.008855 0.178414 0.198443 -0.098725 -0.975128 110 110 110
-0.020318 -0.008668 0.178400 0.189587 -0.072186 -0.979207 110 110 110
-0.020319 -0.008480 0.178385 0.191201 -0.053142 -0.980111 110 110 110
-0.020317 -0.008292 0.178379 0.196846 -0.025574 -0.980101 110 110 110
-0.020314 -0.008105 0.178374 0.204092 -0.033691 -0.978372 112 112 112
-0.020314 -0.007917 0.178363 0.215780 -0.028279 -0.976032 112 112 112
-0.020310 -0.007729 0.178362 0.227468 -0.024307 -0.973482 113 113 113
-0.020307 -0.007542 0.178358 0.228635 -0.026224 -0.973159 114 114 114
-0.020306 -0.007354 0.178348 0.230051 -0.069755 -0.970675 115 115 115
-0.020310 -0.007166 0.178326 0.226423 -0.118794 -0.966758 115 115 115
-0.020317 -0.006979 0.178296 0.212411 -0.173504 -0.961654 115 115 115
-0.020329 -0.006792 0.178251 0.191435 -0.241702 -0.951280 115 115 115
-0.020345 -0.006605 0.178194 0.164237 -0.281824 -0.945305 115 115 115
-0.020363 -0.006418 0.178133 0.131554 -0.309612 -0.941719 115 115 115
-0.020383 -0.006232 0.178065 0.089251 -0.322773 -0.942259 115 115 115
-0.020404 -0.006045 0.177995 0.061874 -0.337505 -0.939288 115 115 115
-0.020426 -0.005859 0.177922 0.039167 -0.337633 -0.940463 115 115 115
-0.020447 -0.005673 0.177855 0.027350 -0.339692 -0.940139 115 115 115
-0.020468 -0.005486 0.177784 0.021966 -0.326671 -0.944883 115 115 115
-0.020486 -0.005300 0.177723 0.025093 -0.319961 -0.947098 115 115 115
-0.020506 -0.005114 0.177656 0.041468 -0.325538 -0.944619 114 114 114
-0.020525 -0.004928 0.177591 0.067469 -0.308977 -0.948673 113 113 113
-0.020544 -0.004742 0.177528 0.101104 -0.318841 -0.942400 112 112 112
-0.020566 -0.004557 0.177455 0.144534 -0.341452 -0.928720 113 113 113
-0.020590 -0.004372 0.177378 0.190071 -0.355570 -0.915119 110 110 110
-0.020617 -0.004187 0.177293 0.237022 -0.377839 -0.895019 110 110 110
-0.020647 -0.004002 0.177197 0.283734 -0.393683 -0.874362 111 111 111
-0.020680 -0.003818 0.177096 0.331699 -0.387294 -0.860220 112 112 112
-0.020712 -0.003634 0.176996 0.376423 -0.373079 -0.848008 115 115 115
-0.020745 -0.003450 0.176895 0.416806 -0.361306 -0.834105 113 113 113
-0.020777 -0.003266 0.176795 0.457736 -0.337296 -0.822623 113 113 113
-0.020805 -0.003082 0.176706 0.485567 -0.299941 -0.821134 112 112 112
-0.020830 -0.002898 0.176625 0.507361 -0.265711 -0.819745 113 113 113
-0.020852 -0.002713 0.176555 0.521743 -0.231066 -0.821214 114 114 114
-0.020871 -0.002529 0.176491 0.531539 -0.199558 -0.823191 112 112 112
-0.020886 -0.002344 0.176440 0.535149 -0.160818 -0.829309 111 111 111
-0.020898 -0.002159 0.176395 0.532700 -0.125090 -0.837009 111 111 111
-0.020904 -0.001974 0.176369 0.526359 -0.095418 -0.844891 112 112 112
-0.020910 -0.001788 0.176343 0.513765 -0.090405 -0.853154 111 111 111
-0.020915 -0.001602 0.176319 0.496975 -0.068617 -0.865048 113 113 113
-0.020917 -0.001416 0.176305 0.477164 -0.047593 -0.877525 113 113 113
-0.020918 -0.001230 0.176293 0.452100 -0.032749 -0.891366 111 111 111
-0.020917 -0.001044 0.176286 0.422546 -0.019822 -0.906125 110 110 110
-0.020916 -0.000858 0.176281 0.390959 -0.054114 -0.918816 111 111 111
-0.020915 -0.000672 0.176273 0.350994 -0.075566 -0.933324 112 112 112
-0.020917 -0.000486 0.176259 0.311300 -0.073035 -0.947501 112 112 112
-0.020921 -0.000300 0.176238 0.270055 -0.133762 -0.953508 112 112 112
-0.020932 -0.000115 0.176199 0.224714 -0.183056 -0.957076 111 111 111
-0.020944 0.000070 0.176156 0.183118 -0.209650 -0.960476 111 111 111
-0.020958 0.000254 0.176109 0.144200 -0.248029 -0.957960 110 110 110
-0.020976 0.000438 0.176052 0.102835 -0.264118 -0.958993 110 110 110
-0.020992 0.000622 0.175998 0.068009 -0.263089 -0.962372 111 111 111
-0.021009 0.000805 0.175944 0.033217 -0.235882 -0.971214 111 111 111
-0.021021 0.000990 0.175901 0.005154 -0.178692 -0.983891 110 110 110
-0.021029 0.001174 0.175871 -0.021083 -0.093664 -0.995381 110 110 110
-0.021030 0.001360 0.175861 -0.031099 0.005034 -0.999504 110 110 110
-0.021023 0.001547 0.175872 -0.056410 0.035704 -0.997769 111 111 111
-0.021018 0.001734 0.175878 -0.062301 0.046727 -0.996963 111 111 111
-0.021012 0.001921 0.175889 -0.074338 0.053470 -0.995799 111 111 111
-0.021005 0.002109 0.175899 -0.076934 0.029354 -0.996604 109 109 109
-0.021002 0.002295 0.175903 -0.075767 -0.025961 -0.996788 108 108 108
-0.021003 0.002481 0.175893 -0.075792 -0.087403 -0.993286 108 108 108
-0.021009 0.002667 0.175869 -0.066123 -0.150803 -0.986350 103 103 103
-0.021018 0.002851 0.175836 -0.057131 -0.215305 -0.974874 109 109 109
-0.021034 0.003035 0.175785 -0.040310 -0.290042 -0.956165 111 111 111
-0.021055 0.003217 0.175722 -0.019402 -0.334157 -0.942318 109 109 109
-0.021078 0.003400 0.175651 0.007999 -0.343237 -0.939215 112 112 112
-0.021100 0.003582 0.175583 0.037004 -0.341261 -0.939240 112 112 112
-0.021125 0.003763 0.175509 0.071868 -0.355328 -0.931975 112 112 112
-0.021150 0.003945 0.175432 0.109572 -0.368143 -0.923290 112 112 112
-0.021178 0.004126 0.175349 0.149335 -0.378264 -0.913573 112 112 112
-0.021207 0.004306 0.175264 0.186987 -0.393851 -0.899954 112 112 112
-0.021239 0.004486 0.175170 0.219026 -0.431229 -0.875254 112 112 112
-0.021276 0.004665 0.175061 0.250000 -0.452689 -0.855904 112 112 112
-0.021314 0.004843 0.174953 0.269964 -0.470000 -0.840369 111 111 111
-0.021356 0.005021 0.174829 0.285108 -0.506149 -0.813958 112 112 112
-0.021403 0.005197 0.174696 0.296653 -0.529945 -0.794453 111 111 111
-0.021452 0.005372 0.174555 0.303791 -0.552246 -0.776360 111 111 111
-0.021505 0.005547 0.174404 0.310806 -0.565509 -0.763936 111 111 111
-0.021558 0.005721 0.174252 0.315816 -0.572509 -0.756633 110 110 110
-0.021613 0.005895 0.174095 0.321612 -0.565226 -0.759661 110 110 110
-0.021666 0.006069 0.173945 0.328814 -0.557237 -0.762476 109 109 109
-0.021719 0.006243 0.173793 0.331752 -0.547498 -0.768236 109 109 109
-0.021770 0.006416 0.173650 0.335327 -0.520089 -0.785534 109 109 109
-0.021816 0.006591 0.173519 0.333556 -0.502760 -0.797479 108 108 108
-0.021862 0.006766 0.173388 0.323203 -0.476073 -0.817859 109 109 109
-0.021902 0.006941 0.173276 0.308386 -0.471146 -0.826390 108 108 108
-0.021945 0.007116 0.173154 0.282077 -0.468646 -0.837140 107 107 107
-0.021983 0.007292 0.173046 0.260511 -0.444623 -0.856998 108 108 108
