ply
format ascii 1.0
element vertex 694
property double x
property double y
property double z
property double nx
property double ny
property double nz
property uchar red
property uchar green
property uchar blue
end_header
0.007339 0.007540 0.171536 -0.489160 -0.399219 -0.775466 132 132 132
0.007303 0.007726 0.171461 -0.462225 -0.402253 -0.790279 132 132 132
0.007267 0.007911 0.171386 -0.439073 -0.404436 -0.802275 132 132 132
0.007231 0.008097 0.171311 -0.432236 -0.405218 -0.805587 131 131 131
0.007194 0.008282 0.171236 -0.417017 -0.410537 -0.810898 131 131 131
0.007157 0.008467 0.171160 -0.406446 -0.419663 -0.811594 131 131 131
0.007119 0.008651 0.171081 -0.399939 -0.433495 -0.807546 132 132 132
0.007079 0.008836 0.171000 -0.399170 -0.441740 -0.803448 133 133 133
0.007039 0.009020 0.170919 -0.403998 -0.447916 -0.797595 135 135 135
0.006997 0.009203 0.170835 -0.401779 -0.501525 -0.766190 136 136 136
0.006944 0.009385 0.170727 -0.373028 -0.617461 -0.692526 139 139 139
0.006869 0.009562 0.170579 -0.327530 -0.727258 -0.603174 140 140 140
0.006775 0.009735 0.170390 -0.280907 -0.809374 -0.515756 138 138 138
0.006655 0.009903 0.170152 -0.223167 -0.866501 -0.446512 131 131 131
0.006508 0.010066 0.169862 -0.193624 -0.896191 -0.399188 124 124 124
0.006332 0.010222 0.169512 -0.151296 -0.929677 -0.335874 120 120 120
0.006125 0.010371 0.169104 -0.108355 -0.955751 -0.273495 121 121 121
0.005896 0.010515 0.168651 -0.088728 -0.964108 -0.250244 119 119 119
0.005653 0.010656 0.168171 -0.076022 -0.966832 -0.243836 121 121 121
0.005408 0.010796 0.167689 -0.070520 -0.964577 -0.254200 121 121 121
0.005175 0.010937 0.167230 -0.072202 -0.957052 -0.280783 123 123 123
0.004965 0.011082 0.166817 -0.082572 -0.941617 -0.326404 136 136 136
0.004785 0.011232 0.166464 -0.103459 -0.913371 -0.393763 150 150 150
0.004639 0.011389 0.166178 -0.150459 -0.866430 -0.476089 155 155 155
0.004526 0.011553 0.165957 -0.195944 -0.786958 -0.585067 147 147 147
0.004441 0.011722 0.165791 -0.209384 -0.722645 -0.658744 142 142 142
0.007153 -0.036290 0.171677 0.776964 -0.269241 -0.569066 85 85 85
0.007003 -0.036060 0.171385 0.775781 -0.269434 -0.570587 87 87 87
0.006823 -0.035822 0.171034 0.764501 -0.276230 -0.582439 90 90 90
0.006627 -0.035581 0.170650 0.769998 -0.264236 -0.580761 93 93 93
0.006430 -0.035340 0.170264 0.775322 -0.247017 -0.581255 94 94 94
0.006238 -0.035101 0.169888 0.783026 -0.254310 -0.567623 95 95 95
0.006076 -0.034871 0.169573 0.758085 -0.239161 -0.606720 97 97 97
0.005953 -0.034652 0.169334 0.778254 -0.107097 -0.618749 98 98 98
0.005873 -0.034444 0.169182 0.778254 -0.107097 -0.618749 99 99 99
0.005843 -0.034250 0.169128 0.784925 -0.008259 -0.619536 100 100 100
0.005865 -0.034068 0.169180 0.894605 0.016434 -0.446556 101 101 101
0.005933 -0.033898 0.169322 0.817603 0.122260 -0.562653 103 103 103
0.006039 -0.033738 0.169539 0.894462 0.016667 -0.446833 102 102 102
0.006169 -0.033583 0.169807 0.894026 0.018085 -0.447650 100 100 100
0.006317 -0.033432 0.170108 0.895779 0.010142 -0.444383 105 105 105
0.006460 -0.033278 0.170398 0.895312 0.011706 -0.445286 104 104 104
0.006566 -0.033116 0.170617 0.824948 0.113287 -0.553740 105 105 105
0.006640 -0.032945 0.170771 0.864874 -0.054347 -0.499039 107 107 107
0.006662 -0.032762 0.170820 0.803242 -0.040861 -0.594250 106 106 106
0.006623 -0.032564 0.170746 0.803242 -0.040861 -0.594250 109 109 109
0.006525 -0.032352 0.170554 0.813231 -0.157510 -0.560220 109 109 109
0.006356 -0.032124 0.170222 0.741213 -0.335927 -0.581168 109 109 109
0.006133 -0.031884 0.169781 0.779783 -0.479361 -0.402681 111 111 111
0.005857 -0.031633 0.169233 0.665416 -0.395453 -0.633118 110 110 110
0.005552 -0.031376 0.168626 0.662081 -0.488503 -0.568342 109 109 109
0.005231 -0.031117 0.167990 0.510548 -0.642010 -0.571982 108 108 108
0.004916 -0.030860 0.167363 0.468795 -0.620783 -0.628379 105 105 105
0.004618 -0.030609 0.166772 0.363618 -0.760537 -0.537927 101 101 101
0.004351 -0.030365 0.166242 0.201581 -0.834463 -0.512871 94 94 94
0.004122 -0.030131 0.165788 0.032557 -0.846502 -0.531390 89 89 89
0.003936 -0.029906 0.165418 -0.170086 -0.814772 -0.554271 88 88 88
0.003794 -0.029692 0.165136 -0.393399 -0.753540 -0.526702 90 90 90
0.003693 -0.029487 0.164938 -0.598512 -0.650837 -0.467112 94 94 94
0.003636 -0.029292 0.164825 -0.811594 -0.366323 -0.455107 100 100 100
0.003617 -0.029105 0.164791 -0.894133 -0.019440 -0.447379 104 104 104
0.003640 -0.028926 0.164838 -0.862301 0.370468 -0.345239 108 108 108
0.003705 -0.028756 0.164969 -0.751251 0.606549 -0.260230 110 110 110
0.003802 -0.028592 0.165165 -0.613060 0.762382 -0.207196 111 111 111
0.003937 -0.028435 0.165434 -0.511730 0.843697 -0.162193 110 110 110
0.004106 -0.028285 0.165775 -0.462885 0.881498 -0.093267 110 110 110
0.004305 -0.028140 0.166173 -0.420665 0.901896 -0.098102 110 110 110
0.004525 -0.027998 0.166613 -0.377384 0.920795 -0.098582 111 111 111
0.004756 -0.027857 0.167074 -0.351910 0.928629 -0.117503 113 113 113
0.004984 -0.027715 0.167531 -0.334807 0.931113 -0.144683 118 118 118
0.005198 -0.027569 0.167958 -0.320949 0.927216 -0.193032 122 122 122
0.005388 -0.027418 0.168339 -0.325554 0.911718 -0.250570 124 124 124
0.005551 -0.027261 0.168665 -0.318316 0.890577 -0.324879 124 124 124
0.005686 -0.027099 0.168934 -0.338828 0.845322 -0.413070 123 123 123
0.005798 -0.026932 0.169157 -0.358630 0.786521 -0.502761 122 122 122
0.005888 -0.026760 0.169336 -0.378059 0.715443 -0.587548 121 121 121
0.005963 -0.026585 0.169485 -0.396154 0.630630 -0.667359 121 121 121
0.006021 -0.026407 0.169599 -0.415028 0.556964 -0.719404 121 121 121
0.006073 -0.026228 0.169702 -0.415341 0.552996 -0.722279 121 121 121
0.006128 -0.026049 0.169812 -0.405730 0.577543 -0.708397 121 121 121
0.006187 -0.025871 0.169928 -0.399875 0.594734 -0.697418 121 121 121
0.006248 -0.025693 0.170049 -0.394720 0.604101 -0.692285 120 120 120
0.006310 -0.025514 0.170171 -0.390163 0.609162 -0.690431 120 120 120
0.006373 -0.025336 0.170294 -0.385873 0.608856 -0.693106 120 120 120
0.006435 -0.025157 0.170417 -0.381493 0.607549 -0.696668 121 121 121
0.006498 -0.024978 0.170540 -0.374380 0.606033 -0.701829 122 122 122
0.006560 -0.024798 0.170662 -0.366772 0.600347 -0.710677 122 122 122
0.006621 -0.024619 0.170782 -0.357740 0.596055 -0.718847 122 122 122
0.006683 -0.024439 0.170902 -0.350505 0.593267 -0.724693 122 122 122
0.006742 -0.024258 0.171018 -0.343238 0.580893 -0.738072 122 122 122
0.006800 -0.024077 0.171131 -0.339509 0.563838 -0.752875 122 122 122
0.006855 -0.023896 0.171238 -0.338781 0.544768 -0.767109 123 123 123
0.006908 -0.023714 0.171342 -0.345090 0.519098 -0.781953 124 124 124
0.006958 -0.023531 0.171437 -0.355328 0.489663 -0.796224 125 125 125
0.007004 -0.023347 0.171526 -0.372192 0.455467 -0.808716 125 125 125
0.007046 -0.023163 0.171606 -0.394567 0.409598 -0.822524 126 126 126
0.007083 -0.022978 0.171676 -0.418817 0.362296 -0.832667 126 126 126
0.007115 -0.022792 0.171737 -0.442240 0.319862 -0.837921 126 126 126
0.007144 -0.022605 0.171790 -0.462084 0.285584 -0.839595 127 127 127
0.007169 -0.022418 0.171838 -0.477942 0.257192 -0.839895 127 127 127
0.007192 -0.022230 0.171880 -0.487758 0.237655 -0.840008 127 127 127
0.007214 -0.022043 0.171920 -0.492067 0.226150 -0.840670 128 128 128
0.007235 -0.021855 0.171957 -0.490865 0.230325 -0.840239 129 129 129
0.007258 -0.021667 0.171998 -0.485749 0.250863 -0.837327 129 129 129
0.007283 -0.021479 0.172043 -0.476540 0.276007 -0.834704 128 128 128
0.007310 -0.021292 0.172093 -0.464150 0.308559 -0.830275 130 130 130
0.007342 -0.021105 0.172151 -0.448890 0.339032 -0.826774 129 129 129
0.007375 -0.020918 0.172213 -0.436312 0.362267 -0.823647 129 129 129
0.007411 -0.020731 0.172280 -0.425133 0.382601 -0.820292 129 129 129
0.007448 -0.020544 0.172350 -0.419864 0.389522 -0.819748 128 128 128
0.007486 -0.020357 0.172420 -0.423068 0.385100 -0.820190 128 128 128
0.007523 -0.020170 0.172488 -0.432860 0.372052 -0.821102 128 128 128
0.007558 -0.019983 0.172552 -0.445834 0.351381 -0.823264 128 128 128
0.007590 -0.019795 0.172612 -0.460041 0.329533 -0.824482 129 129 129
0.007621 -0.019607 0.172668 -0.467768 0.307519 -0.828629 130 130 130
0.007650 -0.019418 0.172720 -0.482700 0.288853 -0.826779 129 129 129
0.007678 -0.019230 0.172769 -0.494391 0.285939 -0.820863 130 130 130
0.007706 -0.019041 0.172820 -0.503189 0.298019 -0.811163 131 131 131
0.007736 -0.018852 0.172874 -0.508213 0.316889 -0.800812 131 131 131
0.007768 -0.018664 0.172933 -0.510950 0.338413 -0.790194 131 131 131
0.007802 -0.018475 0.172995 -0.510300 0.359329 -0.781330 131 131 131
0.007839 -0.018287 0.173062 -0.506150 0.381178 -0.773637 132 132 132
0.007878 -0.018098 0.173133 -0.502458 0.392293 -0.770482 132 132 132
0.007917 -0.017910 0.173204 -0.498551 0.393764 -0.772268 133 133 133
0.007956 -0.017721 0.173276 -0.491104 0.385515 -0.781150 132 132 132
0.007994 -0.017532 0.173345 -0.486770 0.368398 -0.792046 133 133 133
0.008029 -0.017343 0.173410 -0.482714 0.345558 -0.804721 133 133 133
0.008063 -0.017153 0.173469 -0.479378 0.315373 -0.818985 134 134 134
0.008093 -0.016963 0.173522 -0.476890 0.288675 -0.830206 134 134 134
0.008120 -0.016773 0.173571 -0.474282 0.266526 -0.839059 135 135 135
0.008146 -0.016583 0.173615 -0.475425 0.253232 -0.842523 135 135 135
0.008171 -0.016392 0.173657 -0.474351 0.240755 -0.846775 135 135 135
0.008194 -0.016201 0.173697 -0.474402 0.231804 -0.849241 136 136 136
0.008217 -0.016011 0.173736 -0.476428 0.226635 -0.849501 136 136 136
0.008240 -0.015820 0.173774 -0.478827 0.228094 -0.847760 135 135 135
0.008263 -0.015628 0.173813 -0.483806 0.231007 -0.844137 136 136 136
0.008286 -0.015437 0.173853 -0.491224 0.225865 -0.841240 137 137 137
0.008309 -0.015246 0.173890 -0.499564 0.218845 -0.838178 137 137 137
0.008331 -0.015055 0.173927 -0.508955 0.207213 -0.835480 136 136 136
0.008352 -0.014863 0.173961 -0.517390 0.193752 -0.833527 134 134 134
0.008372 -0.014672 0.173993 -0.525738 0.178333 -0.831743 134 134 134
0.008390 -0.014480 0.174021 -0.533057 0.160784 -0.830661 134 134 134
0.008407 -0.014288 0.174047 -0.538498 0.145639 -0.829945 133 133 133
0.008422 -0.014096 0.174070 -0.538052 0.133518 -0.832270 133 133 133
0.008435 -0.013903 0.174089 -0.541514 0.116917 -0.832522 133 133 133
0.008448 -0.013711 0.174106 -0.542368 0.105630 -0.833474 131 131 131
0.008460 -0.013519 0.174121 -0.542089 0.098030 -0.834583 130 130 130
0.008471 -0.013326 0.174136 -0.540810 0.094514 -0.835818 131 131 131
0.008482 -0.013134 0.174150 -0.540219 0.093516 -0.836312 130 130 130
0.008493 -0.012941 0.174165 -0.538767 0.096842 -0.836870 132 132 132
0.008505 -0.012749 0.174179 -0.537788 0.092237 -0.838020 132 132 132
0.008515 -0.012556 0.174192 -0.538357 0.083371 -0.838583 133 133 133
0.008525 -0.012364 0.174204 -0.538682 0.079456 -0.838754 133 133 133
0.008535 -0.012171 0.174215 -0.537382 0.081948 -0.839348 134 134 134
0.008545 -0.011978 0.174228 -0.536695 0.078669 -0.840101 134 134 134
0.008555 -0.011785 0.174238 -0.535397 0.071281 -0.841587 134 134 134
0.008564 -0.011592 0.174248 -0.533032 0.067957 -0.843361 135 135 135
0.008573 -0.011400 0.174258 -0.529343 0.070868 -0.845443 134 134 134
0.008582 -0.011207 0.174268 -0.526905 0.068339 -0.847172 134 134 134
0.008591 -0.011014 0.174277 -0.523794 0.068060 -0.849122 135 135 135
0.008601 -0.010821 0.174287 -0.522577 0.077546 -0.849059 134 134 134
0.008611 -0.010628 0.174300 -0.524460 0.080879 -0.847585 133 133 133
0.008621 -0.010435 0.174312 -0.525700 0.081744 -0.846733 133 133 133
0.008631 -0.010242 0.174323 -0.529833 0.078286 -0.844481 132 132 132
0.008641 -0.010049 0.174334 -0.536173 0.075275 -0.840745 131 131 131
0.008651 -0.009856 0.174345 -0.542650 0.072401 -0.836833 131 131 131
0.008660 -0.009663 0.174354 -0.549766 0.063071 -0.832934 131 131 131
0.008668 -0.009470 0.174361 -0.555626 0.055268 -0.829593 133 133 133
0.008675 -0.009276 0.174368 -0.559577 0.046709 -0.827461 133 133 133
0.008682 -0.009083 0.174373 -0.562359 0.037190 -0.826057 134 134 134
0.008688 -0.008890 0.174377 -0.560057 0.038495 -0.827559 135 135 135
0.008695 -0.008697 0.174382 -0.554740 0.051128 -0.830452 136 136 136
0.008704 -0.008503 0.174390 -0.548829 0.065843 -0.833337 136 136 136
0.008713 -0.008310 0.174400 -0.543480 0.077052 -0.835878 138 138 138
0.008723 -0.008117 0.174412 -0.539263 0.084316 -0.837906 139 139 139
0.008734 -0.007923 0.174425 -0.534976 0.095562 -0.839445 141 141 141
0.008747 -0.007730 0.174441 -0.534021 0.099288 -0.839621 140 140 140
0.008759 -0.007536 0.174456 -0.532191 0.091425 -0.841673 140 140 140
0.008769 -0.007343 0.174468 -0.533239 0.077210 -0.842434 140 140 140
0.008778 -0.007149 0.174478 -0.535055 0.054761 -0.843041 139 139 139
0.008785 -0.006956 0.174482 -0.538267 0.018605 -0.842569 139 139 139
0.008788 -0.006762 0.174478 -0.541943 -0.021665 -0.840136 138 138 138
0.008787 -0.006569 0.174468 -0.544970 -0.058371 -0.836421 139 139 139
0.008783 -0.006376 0.174452 -0.547103 -0.092664 -0.831920 138 138 138
0.008776 -0.006183 0.174430 -0.548642 -0.122608 -0.827018 138 138 138
0.008768 -0.005990 0.174404 -0.549990 -0.139542 -0.823431 138 138 138
0.008758 -0.005797 0.174376 -0.551117 -0.143479 -0.822000 138 138 138
0.008748 -0.005604 0.174348 -0.552097 -0.144240 -0.821208 137 137 137
0.008739 -0.005411 0.174320 -0.553414 -0.140375 -0.820992 138 138 138
0.008730 -0.005218 0.174294 -0.552096 -0.125632 -0.824261 137 137 137
0.008723 -0.005025 0.174271 -0.548378 -0.115079 -0.828274 138 138 138
0.008716 -0.004832 0.174249 -0.541085 -0.107927 -0.834013 138 138 138
0.008710 -0.004639 0.174228 -0.531863 -0.099438 -0.840972 138 138 138
0.008704 -0.004446 0.174209 -0.520485 -0.096602 -0.848389 139 139 139
0.008699 -0.004254 0.174189 -0.506864 -0.100517 -0.856146 138 138 138
0.008692 -0.004061 0.174168 -0.492705 -0.112407 -0.862906 138 138 138
0.008685 -0.003868 0.174144 -0.477574 -0.124547 -0.869719 140 140 140
0.008677 -0.003675 0.174119 -0.463665 -0.128838 -0.876593 140 140 140
0.008668 -0.003483 0.174094 -0.452753 -0.135009 -0.881355 139 139 139
0.008659 -0.003290 0.174068 -0.444632 -0.136812 -0.885203 137 137 137
0.008651 -0.003097 0.174042 -0.441523 -0.130748 -0.887672 136 136 136
0.008643 -0.002905 0.174019 -0.443409 -0.127891 -0.887148 135 135 135
0.008635 -0.002712 0.173995 -0.445568 -0.121179 -0.887009 135 135 135
0.008628 -0.002520 0.173973 -0.452641 -0.114404 -0.884323 136 136 136
0.008621 -0.002327 0.173951 -0.462591 -0.106149 -0.880194 135 135 135
0.008615 -0.002135 0.173931 -0.473248 -0.100133 -0.875220 136 136 136
0.008609 -0.001942 0.173911 -0.484220 -0.106074 -0.868493 135 135 135
0.008602 -0.001750 0.173889 -0.495861 -0.116508 -0.860551 134 134 134
0.008594 -0.001557 0.173865 -0.506226 -0.131406 -0.852331 133 133 133
0.008585 -0.001365 0.173838 -0.514463 -0.156464 -0.843118 133 133 133
0.008572 -0.001173 0.173805 -0.521044 -0.176943 -0.834988 133 133 133
0.008559 -0.000981 0.173771 -0.524402 -0.190038 -0.829993 134 134 134
0.008544 -0.000789 0.173734 -0.525514 -0.203456 -0.826100 134 134 134
0.008529 -0.000598 0.173696 -0.522685 -0.211762 -0.825807 134 134 134
0.008513 -0.000406 0.173656 -0.518260 -0.214381 -0.827917 135 135 135
0.008497 -0.000215 0.173616 -0.514140 -0.205819 -0.832645 135 135 135
0.008482 -0.000023 0.173579 -0.510468 -0.201257 -0.836013 134 134 134
0.008467 0.000168 0.173542 -0.505537 -0.195342 -0.840401 134 134 134
0.008453 0.000359 0.173507 -0.501852 -0.186421 -0.844625 135 135 135
0.008440 0.000551 0.173474 -0.498515 -0.189880 -0.845830 135 135 135
0.008426 0.000742 0.173438 -0.494036 -0.198095 -0.846573 135 135 135
0.008411 0.000933 0.173401 -0.490726 -0.214178 -0.844580 135 135 135
0.008393 0.001124 0.173359 -0.490275 -0.236143 -0.838968 134 134 134
0.008374 0.001315 0.173314 -0.490742 -0.254735 -0.833236 134 134 134
0.008353 0.001505 0.173265 -0.491753 -0.275406 -0.826033 134 134 134
0.008329 0.001695 0.173211 -0.493943 -0.296287 -0.817456 133 133 133
0.008304 0.001885 0.173154 -0.498017 -0.312348 -0.808961 133 133 133
0.008277 0.002075 0.173094 -0.503172 -0.320941 -0.802380 132 132 132
0.008250 0.002264 0.173034 -0.512743 -0.320428 -0.796505 132 132 132
0.008224 0.002454 0.172976 -0.520296 -0.305520 -0.797465 131 131 131
0.008200 0.002643 0.172922 -0.527239 -0.289469 -0.798891 132 132 132
0.008178 0.002833 0.172870 -0.533531 -0.271031 -0.801178 133 133 133
0.008157 0.003023 0.172823 -0.538609 -0.253612 -0.803480 134 134 134
0.008137 0.003213 0.172778 -0.543297 -0.232215 -0.806787 135 135 135
0.008120 0.003403 0.172738 -0.546336 -0.215830 -0.809280 135 135 135
0.008104 0.003593 0.172699 -0.549939 -0.207766 -0.808950 135 135 135
0.008088 0.003783 0.172662 -0.552839 -0.200656 -0.808768 136 136 136
0.008072 0.003974 0.172626 -0.555862 -0.202948 -0.806120 135 135 135
0.008056 0.004164 0.172588 -0.559759 -0.211032 -0.801333 135 135 135
0.008039 0.004354 0.172547 -0.564707 -0.228721 -0.792964 135 135 135
0.008018 0.004543 0.172502 -0.573011 -0.249019 -0.780800 135 135 135
0.007997 0.004732 0.172453 -0.583276 -0.265790 -0.767558 134 134 134
0.007973 0.004921 0.172401 -0.595230 -0.282394 -0.752299 134 134 134
0.007948 0.005110 0.172346 -0.607244 -0.300247 -0.735600 133 133 133
0.007920 0.005298 0.172286 -0.619256 -0.322490 -0.715907 133 133 133
0.007890 0.005486 0.172221 -0.630692 -0.343356 -0.695941 133 133 133
0.007857 0.005673 0.172152 -0.641086 -0.358970 -0.678343 133 133 133
0.007824 0.005860 0.172081 -0.649429 -0.367507 -0.665718 133 133 133
0.007790 0.006047 0.172009 -0.653055 -0.376185 -0.657270 133 133 133
0.007755 0.006233 0.171935 -0.651259 -0.383785 -0.654653 133 133 133
0.007719 0.006420 0.171860 -0.642964 -0.383760 -0.662816 133 133 133
0.007683 0.006606 0.171786 -0.629325 -0.382505 -0.676491 133 133 133
0.007648 0.006792 0.171712 -0.610126 -0.383526 -0.693292 134 134 134
0.007613 0.006978 0.171638 -0.586717 -0.383319 -0.713323 133 133 133
0.007578 0.007164 0.171565 -0.561606 -0.377946 -0.736041 133 133 133
0.007544 0.007350 0.171495 -0.535307 -0.370434 -0.759095 133 133 133
0.007511 0.007536 0.171426 -0.509194 -0.368655 -0.777698 134 134 134
0.007478 0.007722 0.171358 -0.484419 -0.376858 -0.789504 134 134 134
0.007444 0.007908 0.171287 -0.464017 -0.385365 -0.797610 134 134 134
0.007409 0.008094 0.171216 -0.452398 -0.397601 -0.798279 134 134 134
0.007374 0.008279 0.171143 -0.440096 -0.405326 -0.801265 133 133 133
0.007337 0.008464 0.171069 -0.431738 -0.416360 -0.800154 133 133 133
0.007299 0.008649 0.170991 -0.426890 -0.432376 -0.794239 134 134 134
0.007259 0.008833 0.170908 -0.428354 -0.442589 -0.787799 136 136 136
0.007218 0.009017 0.170826 -0.431471 -0.449574 -0.782123 137 137 137
0.007176 0.009200 0.170740 -0.418428 -0.502566 -0.756535 139 139 139
0.007122 0.009382 0.170632 -0.380099 -0.617075 -0.689017 140 140 140
0.007048 0.009559 0.170484 -0.331480 -0.726843 -0.601515 140 140 140
0.006953 0.009732 0.170297 -0.297421 -0.805476 -0.512591 137 137 137
0.006835 0.009901 0.170062 -0.234891 -0.863463 -0.446384 131 131 131
0.006690 0.010063 0.169776 -0.204567 -0.892972 -0.400940 123 123 123
0.006516 0.010220 0.169432 -0.160957 -0.927308 -0.337925 118 118 118
0.006312 0.010370 0.169030 -0.123270 -0.950192 -0.286250 117 117 117
0.006085 0.010515 0.168583 -0.097272 -0.963259 -0.250342 117 117 117
0.005844 0.010656 0.168108 -0.085699 -0.966786 -0.240790 119 119 119
0.005601 0.010796 0.167630 -0.081257 -0.964637 -0.250743 120 120 120
0.005368 0.010937 0.167173 -0.084985 -0.957670 -0.275038 123 123 123
0.005158 0.011082 0.166760 -0.098094 -0.943123 -0.317641 129 129 129
0.004977 0.011233 0.166406 -0.122662 -0.916348 -0.381131 137 137 137
0.004830 0.011390 0.166117 -0.175007 -0.870917 -0.459212 141 141 141
0.004714 0.011553 0.165893 -0.216642 -0.802149 -0.556438 139 139 139
0.004627 0.011722 0.165723 -0.235571 -0.733875 -0.637129 136 136 136
0.007997 -0.036470 0.172907 0.778824 -0.259399 -0.571092 87 87 87
0.007846 -0.036238 0.172613 0.779134 -0.259766 -0.570502 88 88 88
0.007666 -0.035999 0.172263 0.772416 -0.263817 -0.577732 90 90 90
0.007463 -0.035755 0.171868 0.776661 -0.244880 -0.580373 90 90 90
0.007256 -0.035510 0.171462 0.777834 -0.245088 -0.578710 89 89 89
0.007052 -0.035267 0.171063 0.762729 -0.273799 -0.585900 88 88 88
0.006887 -0.035035 0.170742 0.775657 -0.218361 -0.592178 85 85 85
0.006761 -0.034814 0.170497 0.894303 0.016468 -0.447158 85 85 85
0.006690 -0.034607 0.170363 0.803136 -0.084848 -0.589724 84 84 84
0.006670 -0.034414 0.170330 0.795851 0.029781 -0.604760 88 88 88
0.006712 -0.034236 0.170420 0.822947 0.076206 -0.562985 88 88 88
0.006799 -0.034070 0.170602 0.894159 0.016619 -0.447440 89 89 89
0.006933 -0.033915 0.170874 0.894091 0.016736 -0.447572 90 90 90
0.007085 -0.033764 0.171184 0.893689 0.018363 -0.448310 89 89 89
0.007261 -0.033619 0.171541 0.895184 0.010128 -0.445582 93 93 93
0.007436 -0.033472 0.171895 0.894802 0.011645 -0.446311 96 96 96
0.007561 -0.033312 0.172150 0.894741 0.011719 -0.446433 98 98 98
0.007649 -0.033143 0.172331 0.889401 -0.086283 -0.448912 100 100 100
0.007670 -0.032958 0.172377 0.834129 -0.078670 -0.545930 99 99 99
0.007612 -0.032754 0.172267 0.835976 -0.076271 -0.543439 98 98 98
0.007482 -0.032533 0.172011 0.831237 -0.174769 -0.527731 98 98 98
0.007269 -0.032293 0.171593 0.696068 -0.417297 -0.584253 97 97 97
0.006973 -0.032035 0.171005 0.777834 -0.337118 -0.530402 95 95 95
0.006616 -0.031764 0.170299 0.582589 -0.441409 -0.682458 91 91 91
0.006221 -0.031486 0.169514 0.560838 -0.653426 -0.508425 93 93 93
0.005809 -0.031206 0.168697 0.561056 -0.586859 -0.583792 90 90 90
0.005402 -0.030928 0.167889 0.493593 -0.700248 -0.515770 89 89 89
0.005017 -0.030656 0.167126 0.354718 -0.797057 -0.488748 87 87 87
0.004671 -0.030395 0.166439 0.204106 -0.871811 -0.445293 83 83 83
0.004376 -0.030146 0.165854 0.058666 -0.888765 -0.454593 81 81 81
0.004138 -0.029911 0.165382 -0.091117 -0.861490 -0.499533 83 83 83
0.003958 -0.029688 0.165025 -0.352853 -0.779844 -0.517047 87 87 87
0.003831 -0.029478 0.164775 -0.494052 -0.739179 -0.457742 94 94 94
0.003757 -0.029279 0.164629 -0.730372 -0.484172 -0.481804 101 101 101
0.003727 -0.029090 0.164572 -0.882462 -0.061077 -0.466401 107 107 107
0.003745 -0.028910 0.164609 -0.835814 0.373608 -0.402283 111 111 111
0.003809 -0.028740 0.164739 -0.706076 0.637484 -0.308336 113 113 113
0.003907 -0.028576 0.164935 -0.553769 0.792548 -0.255359 114 114 114
0.004041 -0.028420 0.165205 -0.514103 0.843138 -0.157535 114 114 114
0.004212 -0.028270 0.165547 -0.422924 0.894172 -0.146941 113 113 113
0.004414 -0.028125 0.165950 -0.367242 0.921320 -0.127678 112 112 112
0.004639 -0.027985 0.166400 -0.330103 0.935663 -0.124769 111 111 111
0.004877 -0.027845 0.166874 -0.307675 0.941601 -0.136832 113 113 113
0.005113 -0.027705 0.167345 -0.289377 0.944603 -0.154877 116 116 116
0.005335 -0.027561 0.167788 -0.280994 0.939179 -0.197446 119 119 119
0.005534 -0.027411 0.168185 -0.289144 0.923964 -0.250372 120 120 120
0.005705 -0.027256 0.168526 -0.287471 0.902822 -0.319803 121 121 121
0.005847 -0.027095 0.168808 -0.313240 0.859565 -0.403769 121 121 121
0.005964 -0.026928 0.169040 -0.338788 0.802187 -0.491649 120 120 120
0.006057 -0.026757 0.169226 -0.363876 0.732439 -0.575437 120 120 120
0.006135 -0.026583 0.169381 -0.387966 0.645748 -0.657641 120 120 120
0.006195 -0.026406 0.169499 -0.412488 0.565265 -0.714374 120 120 120
0.006247 -0.026227 0.169602 -0.416276 0.552687 -0.721978 121 121 121
0.006303 -0.026048 0.169712 -0.410245 0.574785 -0.708040 121 121 121
0.006362 -0.025869 0.169828 -0.407883 0.591992 -0.695109 120 120 120
0.006423 -0.025691 0.169948 -0.406891 0.603822 -0.685447 121 121 121
0.006485 -0.025513 0.170070 -0.405801 0.610498 -0.680160 121 121 121
0.006548 -0.025334 0.170194 -0.404023 0.611049 -0.680723 122 122 122
0.006611 -0.025156 0.170317 -0.401282 0.611054 -0.682339 122 122 122
0.006674 -0.024977 0.170442 -0.395205 0.611391 -0.685575 122 122 122
0.006738 -0.024797 0.170566 -0.388223 0.607657 -0.692846 122 122 122
0.006800 -0.024618 0.170689 -0.379775 0.604413 -0.700326 122 122 122
0.006863 -0.024438 0.170811 -0.371027 0.596648 -0.711583 120 120 120
0.006924 -0.024258 0.170930 -0.364303 0.584344 -0.725138 122 122 122
0.006983 -0.024077 0.171045 -0.363916 0.571592 -0.735424 122 122 122
0.007039 -0.023896 0.171154 -0.364266 0.549393 -0.751982 124 124 124
0.007093 -0.023714 0.171258 -0.371149 0.520112 -0.769241 125 125 125
0.007142 -0.023531 0.171353 -0.381658 0.486470 -0.785929 125 125 125
0.007188 -0.023347 0.171440 -0.398407 0.447326 -0.800731 126 126 126
0.007228 -0.023163 0.171518 -0.420112 0.396982 -0.816034 126 126 126
0.007264 -0.022977 0.171585 -0.442874 0.346185 -0.827054 126 126 126
0.007294 -0.022791 0.171642 -0.463374 0.303400 -0.832606 126 126 126
0.007321 -0.022604 0.171692 -0.479587 0.271561 -0.834417 127 127 127
0.007346 -0.022417 0.171737 -0.491585 0.246873 -0.835104 127 127 127
0.007368 -0.022229 0.171777 -0.495443 0.236009 -0.835964 127 127 127
0.007389 -0.022042 0.171816 -0.497360 0.227091 -0.837295 127 127 127
0.007410 -0.021854 0.171854 -0.494821 0.237130 -0.836015 129 129 129
0.007434 -0.021666 0.171895 -0.489152 0.257408 -0.833350 129 129 129
0.007459 -0.021478 0.171942 -0.477186 0.285205 -0.831235 131 131 131
0.007488 -0.021291 0.171995 -0.462381 0.319323 -0.827186 131 131 131
0.007521 -0.021104 0.172055 -0.445606 0.349354 -0.824249 130 130 130
0.007555 -0.020917 0.172119 -0.432353 0.370341 -0.822143 130 130 130
0.007592 -0.020731 0.172188 -0.421087 0.387387 -0.820132 129 129 129
0.007630 -0.020544 0.172259 -0.415918 0.390554 -0.821267 128 128 128
0.007667 -0.020357 0.172328 -0.420125 0.380955 -0.823631 128 128 128
0.007704 -0.020170 0.172395 -0.429339 0.364088 -0.826503 128 128 128
0.007738 -0.019982 0.172458 -0.440467 0.341879 -0.830125 128 128 128
0.007770 -0.019795 0.172516 -0.452788 0.318329 -0.832856 128 128 128
0.007800 -0.019606 0.172570 -0.465989 0.294595 -0.834307 127 127 127
0.007827 -0.019418 0.172619 -0.478227 0.276903 -0.833441 128 128 128
0.007854 -0.019229 0.172666 -0.480574 0.276091 -0.832360 127 127 127
0.007881 -0.019040 0.172715 -0.486905 0.290360 -0.823781 127 127 127
0.007910 -0.018851 0.172767 -0.490398 0.310591 -0.814274 128 128 128
0.007942 -0.018663 0.172824 -0.492732 0.333851 -0.803591 129 129 129
0.007976 -0.018474 0.172885 -0.492908 0.357404 -0.793287 130 130 130
0.008012 -0.018286 0.172952 -0.491274 0.381151 -0.783182 130 130 130
0.008051 -0.018097 0.173023 -0.491389 0.392858 -0.777303 132 132 132
0.008090 -0.017909 0.173094 -0.491953 0.394912 -0.775904 133 133 133
0.008129 -0.017720 0.173166 -0.491838 0.391762 -0.777572 133 133 133
0.008168 -0.017532 0.173236 -0.492544 0.375703 -0.785014 134 134 134
0.008204 -0.017342 0.173302 -0.493128 0.353941 -0.794702 134 134 134
0.008238 -0.017153 0.173363 -0.493220 0.324387 -0.807160 134 134 134
0.008269 -0.016963 0.173417 -0.493015 0.296799 -0.817830 135 135 135
0.008297 -0.016773 0.173467 -0.491078 0.273411 -0.827097 134 134 134
0.008323 -0.016583 0.173512 -0.488545 0.256609 -0.833952 134 134 134
0.008348 -0.016392 0.173555 -0.485518 0.242857 -0.839817 133 133 133
0.008372 -0.016201 0.173595 -0.485409 0.234956 -0.842125 133 133 133
0.008395 -0.016010 0.173634 -0.485516 0.227549 -0.844095 131 131 131
0.008417 -0.015819 0.173672 -0.485589 0.227137 -0.844164 131 131 131
0.008441 -0.015628 0.173710 -0.490415 0.226455 -0.841553 132 132 132
0.008463 -0.015437 0.173748 -0.497723 0.218547 -0.839350 131 131 131
0.008485 -0.015246 0.173785 -0.506657 0.209457 -0.836317 131 131 131
0.008507 -0.015055 0.173820 -0.517082 0.197202 -0.832909 132 132 132
0.008527 -0.014863 0.173852 -0.526886 0.183930 -0.829795 133 133 133
0.008546 -0.014671 0.173883 -0.536621 0.169074 -0.826711 133 133 133
0.008563 -0.014480 0.173910 -0.545371 0.152233 -0.824255 132 132 132
0.008579 -0.014288 0.173934 -0.546000 0.146114 -0.824946 134 134 134
0.008594 -0.014095 0.173956 -0.551986 0.130445 -0.823587 133 133 133
0.008607 -0.013903 0.173974 -0.556654 0.115920 -0.822617 134 134 134
0.008620 -0.013711 0.173992 -0.558201 0.107123 -0.822761 134 134 134
0.008632 -0.013519 0.174007 -0.558127 0.100066 -0.823700 134 134 134
0.008643 -0.013326 0.174022 -0.556684 0.096271 -0.825127 135 135 135
0.008654 -0.013134 0.174037 -0.555256 0.095703 -0.826155 136 136 136
0.008666 -0.012941 0.174052 -0.552592 0.098659 -0.827592 136 136 136
0.008678 -0.012749 0.174067 -0.550072 0.093418 -0.829875 137 137 137
0.008688 -0.012556 0.174080 -0.548740 0.084197 -0.831742 136 136 136
0.008698 -0.012364 0.174092 -0.547053 0.080985 -0.833171 136 136 136
0.008709 -0.012171 0.174104 -0.543771 0.084418 -0.834977 137 137 137
0.008719 -0.011978 0.174117 -0.541570 0.081118 -0.836733 137 137 137
0.008729 -0.011786 0.174128 -0.540105 0.073155 -0.838412 137 137 137
0.008738 -0.011593 0.174138 -0.538374 0.070081 -0.839787 137 137 137
0.008748 -0.011400 0.174148 -0.535171 0.073596 -0.841532 137 137 137
0.008757 -0.011207 0.174159 -0.532669 0.071573 -0.843292 138 138 138
0.008766 -0.011014 0.174169 -0.530941 0.069227 -0.844577 137 137 137
0.008776 -0.010821 0.174179 -0.529163 0.077491 -0.844974 138 138 138
0.008786 -0.010629 0.174192 -0.528570 0.081198 -0.844997 136 136 136
0.008796 -0.010436 0.174203 -0.530384 0.078121 -0.844150 136 136 136
0.008806 -0.010243 0.174214 -0.533268 0.072775 -0.842810 136 136 136
0.008815 -0.010050 0.174223 -0.537696 0.067939 -0.840397 136 136 136
0.008824 -0.009857 0.174232 -0.542151 0.064423 -0.837808 136 136 136
0.008832 -0.009663 0.174240 -0.546773 0.056496 -0.835373 135 135 135
0.008840 -0.009470 0.174246 -0.551254 0.048974 -0.832899 136 136 136
0.008847 -0.009277 0.174252 -0.552804 0.043022 -0.832200 135 135 135
0.008854 -0.009084 0.174257 -0.552388 0.038166 -0.832713 136 136 136
0.008860 -0.008891 0.174261 -0.549787 0.042495 -0.834223 136 136 136
0.008867 -0.008698 0.174266 -0.545428 0.057166 -0.836206 135 135 135
0.008876 -0.008504 0.174275 -0.541535 0.071832 -0.837604 134 134 134
0.008886 -0.008311 0.174286 -0.539246 0.080796 -0.838264 135 135 135
0.008897 -0.008118 0.174299 -0.538295 0.086642 -0.838291 136 136 136
0.008908 -0.007924 0.174312 -0.537970 0.096507 -0.837422 136 136 136
0.008920 -0.007731 0.174329 -0.540990 0.097660 -0.835340 135 135 135
0.008932 -0.007538 0.174343 -0.541393 0.089812 -0.835959 135 135 135
0.008942 -0.007344 0.174355 -0.545895 0.074268 -0.834556 134 134 134
0.008951 -0.007151 0.174364 -0.550736 0.050774 -0.833134 135 135 135
0.008957 -0.006957 0.174367 -0.556135 0.013781 -0.830978 135 135 135
0.008960 -0.006764 0.174363 -0.561007 -0.026095 -0.827400 136 136 136
0.008959 -0.006570 0.174352 -0.564216 -0.062439 -0.823263 138 138 138
0.008954 -0.006377 0.174336 -0.566175 -0.096117 -0.818662 137 137 137
0.008947 -0.006184 0.174313 -0.566790 -0.124112 -0.814460 138 138 138
0.008938 -0.005991 0.174286 -0.566641 -0.140064 -0.811973 138 138 138
0.008929 -0.005798 0.174259 -0.565898 -0.143883 -0.811823 138 138 138
0.008919 -0.005605 0.174231 -0.564974 -0.144300 -0.812392 138 138 138
0.008910 -0.005413 0.174203 -0.562997 -0.137142 -0.815001 138 138 138
0.008901 -0.005220 0.174178 -0.559928 -0.120146 -0.819784 139 139 139
0.008895 -0.005027 0.174156 -0.554594 -0.106036 -0.825338 138 138 138
0.008889 -0.004834 0.174135 -0.546077 -0.096048 -0.832211 138 138 138
0.008883 -0.004641 0.174117 -0.535699 -0.085610 -0.840058 137 137 137
0.008879 -0.004448 0.174100 -0.523563 -0.080338 -0.848191 136 136 136
0.008875 -0.004255 0.174083 -0.509541 -0.082954 -0.856439 135 135 135
0.008871 -0.004062 0.174066 -0.495238 -0.095271 -0.863518 133 133 133
0.008864 -0.003869 0.174045 -0.480090 -0.107903 -0.870558 135 135 135
0.008858 -0.003677 0.174023 -0.466748 -0.113990 -0.877013 135 135 135
0.008851 -0.003484 0.174000 -0.456177 -0.123858 -0.881227 136 136 136
0.008842 -0.003291 0.173976 -0.448587 -0.130183 -0.884207 135 135 135
0.008834 -0.003099 0.173951 -0.446175 -0.129397 -0.885542 135 135 135
0.008826 -0.002906 0.173927 -0.445787 -0.128422 -0.885879 135 135 135
0.008818 -0.002714 0.173903 -0.450067 -0.128134 -0.883754 135 135 135
0.008810 -0.002521 0.173879 -0.457399 -0.124401 -0.880517 135 135 135
0.008802 -0.002329 0.173855 -0.467099 -0.118491 -0.876230 135 135 135
0.008795 -0.002136 0.173833 -0.477227 -0.113657 -0.871399 135 135 135
0.008788 -0.001944 0.173810 -0.487402 -0.120190 -0.864866 135 135 135
0.008780 -0.001751 0.173786 -0.497768 -0.130692 -0.857407 135 135 135
0.008771 -0.001559 0.173759 -0.506504 -0.144207 -0.850093 135 135 135
0.008760 -0.001367 0.173730 -0.512887 -0.166054 -0.842243 135 135 135
0.008747 -0.001175 0.173697 -0.517566 -0.183222 -0.835796 135 135 135
0.008733 -0.000983 0.173662 -0.519618 -0.193281 -0.832250 134 134 134
0.008718 -0.000792 0.173625 -0.520362 -0.203672 -0.829302 133 133 133
0.008703 -0.000600 0.173587 -0.518547 -0.209969 -0.828868 134 134 134
0.008687 -0.000409 0.173547 -0.515785 -0.211234 -0.830269 135 135 135
0.008672 -0.000217 0.173509 -0.514295 -0.202938 -0.833257 136 136 136
0.008657 -0.000026 0.173472 -0.513739 -0.198500 -0.834667 136 136 136
0.008642 0.000166 0.173436 -0.512386 -0.192420 -0.836920 136 136 136
0.008629 0.000357 0.173402 -0.512213 -0.183451 -0.839037 136 136 136
0.008616 0.000549 0.173369 -0.510534 -0.185324 -0.839649 136 136 136
0.008602 0.000740 0.173333 -0.509024 -0.196461 -0.838032 136 136 136
0.008587 0.000931 0.173296 -0.507520 -0.215600 -0.834230 136 136 136
0.008569 0.001122 0.173253 -0.507385 -0.238825 -0.827963 135 135 135
0.008549 0.001313 0.173208 -0.506612 -0.257973 -0.822675 135 135 135
0.008528 0.001503 0.173158 -0.505253 -0.280275 -0.816189 134 134 134
0.008504 0.001693 0.173104 -0.504273 -0.302332 -0.808891 133 133 133
0.008478 0.001883 0.173045 -0.504587 -0.318900 -0.802306 132 132 132
0.008451 0.002072 0.172985 -0.506060 -0.327577 -0.797870 134 134 134
0.008423 0.002261 0.172923 -0.510064 -0.323424 -0.797014 134 134 134
0.008397 0.002451 0.172865 -0.515636 -0.309379 -0.799002 134 134 134
0.008372 0.002640 0.172809 -0.521940 -0.294181 -0.800647 134 134 134
0.008349 0.002830 0.172757 -0.529304 -0.275827 -0.802345 134 134 134
0.008327 0.003020 0.172709 -0.536649 -0.258000 -0.803395 135 135 135
0.008308 0.003209 0.172663 -0.544465 -0.237327 -0.804509 134 134 134
0.008290 0.003400 0.172622 -0.550105 -0.220468 -0.805468 134 134 134
0.008273 0.003590 0.172583 -0.557575 -0.212415 -0.802490 135 135 135
0.008257 0.003780 0.172545 -0.564657 -0.206000 -0.799204 135 135 135
0.008241 0.003970 0.172507 -0.571681 -0.209289 -0.793334 135 135 135
0.008223 0.004160 0.172467 -0.578802 -0.219736 -0.785306 133 133 133
0.008205 0.004350 0.172425 -0.585958 -0.240453 -0.773845 132 132 132
0.008183 0.004539 0.172377 -0.595115 -0.263282 -0.759290 131 131 131
0.008160 0.004728 0.172325 -0.605282 -0.281463 -0.744588 130 130 130
0.008134 0.004916 0.172269 -0.616130 -0.298992 -0.728689 129 129 129
0.008107 0.005105 0.172210 -0.626343 -0.317953 -0.711759 130 130 130
0.008077 0.005292 0.172146 -0.636007 -0.339986 -0.692752 131 131 131
0.008045 0.005480 0.172078 -0.645222 -0.358704 -0.674552 131 131 131
0.008011 0.005667 0.172006 -0.653912 -0.370208 -0.659807 132 132 132
0.007976 0.005853 0.171933 -0.660999 -0.373769 -0.650674 133 133 133
0.007942 0.006040 0.171859 -0.663983 -0.376544 -0.646020 134 134 134
0.007906 0.006226 0.171786 -0.661454 -0.375665 -0.649118 133 133 133
0.007872 0.006413 0.171713 -0.653730 -0.368139 -0.661144 134 134 134
0.007838 0.006599 0.171642 -0.640827 -0.360170 -0.677952 134 134 134
0.007805 0.006786 0.171574 -0.622393 -0.355519 -0.697305 134 134 134
0.007773 0.006972 0.171506 -0.599759 -0.351974 -0.718612 133 133 133
0.007741 0.007159 0.171439 -0.575630 -0.345038 -0.741349 132 132 132
0.007710 0.007345 0.171375 -0.550989 -0.337357 -0.763284 132 132 132
0.007680 0.007532 0.171313 -0.527044 -0.339301 -0.779166 131 131 131
0.007650 0.007719 0.171249 -0.504735 -0.353169 -0.787728 130 130 130
0.007618 0.007905 0.171183 -0.486954 -0.368146 -0.792051 129 129 129
0.007585 0.008091 0.171115 -0.476577 -0.385832 -0.789942 130 130 130
0.007550 0.008276 0.171044 -0.466617 -0.398949 -0.789372 127 127 127
0.007514 0.008461 0.170970 -0.459947 -0.414467 -0.785281 128 128 128
0.007475 0.008646 0.170891 -0.455452 -0.434644 -0.776947 130 130 130
0.007434 0.008830 0.170808 -0.455972 -0.447736 -0.769169 132 132 132
0.007393 0.009013 0.170725 -0.457637 -0.454284 -0.764326 134 134 134
0.007350 0.009197 0.170639 -0.442476 -0.502948 -0.742467 136 136 136
0.007297 0.009378 0.170532 -0.400186 -0.614503 -0.679881 138 138 138
0.007223 0.009556 0.170385 -0.347512 -0.723272 -0.596752 140 140 140
0.007130 0.009729 0.170201 -0.292856 -0.804390 -0.516906 139 139 139
0.007013 0.009898 0.169970 -0.242491 -0.859627 -0.449710 133 133 133
0.006871 0.010061 0.169688 -0.212917 -0.888954 -0.405496 126 126 126
0.006699 0.010218 0.169349 -0.168316 -0.924548 -0.341877 122 122 122
0.006497 0.010369 0.168952 -0.132477 -0.947603 -0.290685 122 122 122
0.006272 0.010514 0.168510 -0.103529 -0.962458 -0.250912 122 122 122
0.006033 0.010656 0.168039 -0.093025 -0.966364 -0.239763 122 122 122
0.005790 0.010796 0.167564 -0.090098 -0.964779 -0.247151 123 123 123
0.005558 0.010937 0.167108 -0.095914 -0.958251 -0.269360 125 125 125
0.005346 0.011082 0.166694 -0.111740 -0.944422 -0.309162 129 129 129
0.005164 0.011232 0.166338 -0.139489 -0.918827 -0.369188 132 132 132
0.005015 0.011389 0.166046 -0.197702 -0.874811 -0.442290 133 133 133
0.004897 0.011552 0.165818 -0.255377 -0.821795 -0.509349 135 135 135
0.008834 -0.036647 0.174116 0.778815 -0.241800 -0.578775 87 87 87
0.008688 -0.036416 0.173835 0.779122 -0.248232 -0.575630 87 87 87
0.008518 -0.036178 0.173504 0.781302 -0.252772 -0.570678 87 87 87
0.008324 -0.035935 0.173128 0.782684 -0.232950 -0.577184 84 84 84
0.008125 -0.035692 0.172739 0.784321 -0.230938 -0.575768 80 80 80
0.007926 -0.035449 0.172351 0.774111 -0.241014 -0.585375 74 74 74
0.007755 -0.035214 0.172018 0.756036 -0.138603 -0.639686 68 68 68
0.007643 -0.034995 0.171802 0.795604 -0.042241 -0.604343 65 65 65
0.007585 -0.034790 0.171695 0.806130 -0.045716 -0.589970 61 61 61
0.007587 -0.034601 0.171706 0.847500 -0.035297 -0.529620 66 66 66
0.007647 -0.034427 0.171831 0.829594 0.100847 -0.549185 66 66 66
0.007752 -0.034263 0.172047 0.827625 0.158597 -0.538409 65 65 65
0.007904 -0.034112 0.172356 0.803189 0.197612 -0.561993 71 71 71
0.008088 -0.033967 0.172728 0.893604 0.017377 -0.448519 74 74 74
0.008344 -0.033839 0.173244 0.801907 0.214325 -0.557682 81 81 81
0.008550 -0.033698 0.173659 0.824461 0.184576 -0.534973 87 87 87
0.008698 -0.033542 0.173958 0.894273 0.011650 -0.447371 90 90 90
0.008776 -0.033369 0.174119 0.814490 0.007359 -0.580131 90 90 90
0.008787 -0.033180 0.174146 0.795931 -0.170135 -0.580989 92 92 92
0.008717 -0.032971 0.174011 0.783036 -0.186543 -0.593343 91 91 91
0.008544 -0.032738 0.173673 0.674012 -0.233936 -0.700701 91 91 91
0.008278 -0.032485 0.173147 0.671149 -0.511364 -0.536718 89 89 89
0.007901 -0.032206 0.172402 0.761020 -0.340170 -0.552389 84 84 84
0.007432 -0.031908 0.171473 0.711377 -0.449161 -0.540553 78 78 78
0.006937 -0.031606 0.170492 0.582589 -0.441409 -0.682458 71 71 71
0.006428 -0.031303 0.169482 0.565860 -0.650507 -0.506599 72 72 72
0.005921 -0.031002 0.168477 0.504533 -0.706937 -0.495667 68 68 68
0.005443 -0.030710 0.167531 0.416960 -0.757464 -0.502387 73 73 73
0.005013 -0.030430 0.166678 0.205393 -0.889603 -0.407946 70 70 70
0.004646 -0.030165 0.165951 0.091013 -0.904120 -0.417473 73 73 73
0.004350 -0.029917 0.165366 -0.004097 -0.888872 -0.458137 74 74 74
0.004129 -0.029686 0.164929 -0.240349 -0.841118 -0.484514 83 83 83
0.003974 -0.029470 0.164622 -0.409721 -0.775396 -0.480511 90 90 90
0.003882 -0.029267 0.164441 -0.630454 -0.585503 -0.509622 96 96 96
0.003840 -0.029076 0.164361 -0.831355 -0.137409 -0.538486 100 100 100
0.003854 -0.028895 0.164391 -0.793957 0.382988 -0.472179 104 104 104
0.003921 -0.028726 0.164524 -0.647478 0.671699 -0.359991 107 107 107
0.004019 -0.028563 0.164722 -0.523914 0.801135 -0.289303 109 109 109
0.004156 -0.028406 0.164995 -0.419450 0.879111 -0.226332 108 108 108
0.004329 -0.028257 0.165340 -0.371658 0.912239 -0.172308 108 108 108
0.004533 -0.028113 0.165748 -0.331677 0.930660 -0.154477 109 109 109
0.004763 -0.027973 0.166205 -0.296206 0.943236 -0.150226 110 110 110
0.005006 -0.027835 0.166690 -0.264576 0.953295 -0.145699 112 112 112
0.005249 -0.027696 0.167173 -0.253588 0.953474 -0.163034 116 116 116
0.005479 -0.027553 0.167630 -0.250634 0.947008 -0.200896 121 121 121
0.005685 -0.027405 0.168041 -0.261587 0.932381 -0.249473 124 124 124
0.005863 -0.027251 0.168394 -0.280445 0.906374 -0.315968 124 124 124
0.006010 -0.027091 0.168687 -0.292438 0.870083 -0.396782 124 124 124
0.006131 -0.026925 0.168927 -0.322168 0.813863 -0.483566 124 124 124
0.006228 -0.026755 0.169120 -0.351942 0.744888 -0.566814 123 123 123
0.006308 -0.026581 0.169278 -0.382054 0.656815 -0.650099 122 122 122
0.006370 -0.026404 0.169399 -0.412750 0.570153 -0.710326 123 123 123
0.006422 -0.026225 0.169503 -0.422725 0.550543 -0.719865 123 123 123
0.006477 -0.026046 0.169612 -0.420795 0.569776 -0.705894 122 122 122
0.006535 -0.025868 0.169726 -0.421826 0.587268 -0.690781 122 122 122
0.006596 -0.025689 0.169844 -0.423221 0.600387 -0.678543 123 123 123
0.006658 -0.025511 0.169966 -0.424371 0.608818 -0.670261 123 123 123
0.006721 -0.025332 0.170089 -0.424047 0.610881 -0.668587 122 122 122
0.006784 -0.025154 0.170213 -0.421916 0.612920 -0.668068 123 123 123
0.006848 -0.024975 0.170338 -0.416266 0.615565 -0.669180 123 123 123
0.006912 -0.024796 0.170464 -0.409553 0.614094 -0.674652 122 122 122
0.006976 -0.024617 0.170589 -0.401716 0.612111 -0.681135 121 121 121
0.007040 -0.024437 0.170713 -0.394110 0.605105 -0.691755 120 120 120
0.007102 -0.024257 0.170835 -0.389132 0.592906 -0.705010 120 120 120
0.007163 -0.024076 0.170952 -0.386868 0.573863 -0.721813 121 121 121
0.007220 -0.023895 0.171063 -0.389703 0.550153 -0.738555 122 122 122
0.007274 -0.023713 0.171168 -0.396546 0.519551 -0.756847 123 123 123
0.007323 -0.023530 0.171263 -0.416509 0.482401 -0.770591 124 124 124
0.007369 -0.023346 0.171349 -0.434559 0.438534 -0.786668 123 123 123
0.007408 -0.023162 0.171425 -0.445203 0.391090 -0.805508 125 125 125
0.007442 -0.022976 0.171489 -0.466503 0.339189 -0.816900 124 124 124
0.007471 -0.022790 0.171543 -0.484561 0.297111 -0.822755 124 124 124
0.007497 -0.022603 0.171591 -0.497818 0.266337 -0.825374 125 125 125
0.007521 -0.022416 0.171634 -0.506081 0.243536 -0.827389 125 125 125
0.007542 -0.022228 0.171673 -0.509344 0.231052 -0.828965 125 125 125
0.007564 -0.022040 0.171711 -0.506581 0.228038 -0.831489 126 126 126
0.007585 -0.021852 0.171750 -0.498693 0.241966 -0.832321 128 128 128
0.007610 -0.021665 0.171793 -0.485256 0.269973 -0.831649 129 129 129
0.007637 -0.021478 0.171843 -0.477284 0.297567 -0.826834 131 131 131
0.007666 -0.021290 0.171898 -0.460195 0.332215 -0.823319 131 131 131
0.007700 -0.021104 0.171960 -0.442474 0.360894 -0.820958 131 131 131
0.007736 -0.020917 0.172026 -0.429067 0.379230 -0.819809 131 131 131
0.007774 -0.020730 0.172096 -0.418447 0.392395 -0.819102 131 131 131
0.007812 -0.020544 0.172167 -0.414237 0.391583 -0.821627 130 130 130
0.007849 -0.020357 0.172236 -0.418948 0.378008 -0.825586 131 131 131
0.007885 -0.020170 0.172302 -0.428551 0.357521 -0.829773 131 131 131
0.007918 -0.019982 0.172363 -0.439721 0.333707 -0.833838 131 131 131
0.007950 -0.019794 0.172420 -0.452468 0.308610 -0.836680 131 131 131
0.007978 -0.019606 0.172471 -0.465593 0.283172 -0.838473 130 130 130
0.008005 -0.019417 0.172519 -0.477332 0.265295 -0.837719 131 131 131
0.008030 -0.019228 0.172564 -0.479854 0.266266 -0.835968 131 131 131
0.008057 -0.019039 0.172611 -0.486035 0.282207 -0.827121 130 130 130
0.008086 -0.018851 0.172662 -0.489995 0.303318 -0.817253 130 130 130
0.008117 -0.018662 0.172718 -0.492943 0.327985 -0.805874 129 129 129
0.008150 -0.018473 0.172778 -0.493689 0.353706 -0.794458 128 128 128
0.008186 -0.018285 0.172844 -0.493086 0.378855 -0.783157 127 127 127
0.008225 -0.018097 0.172914 -0.495006 0.391830 -0.775524 127 127 127
0.008263 -0.017908 0.172985 -0.496452 0.393676 -0.773663 125 125 125
0.008303 -0.017720 0.173056 -0.497925 0.392072 -0.773531 127 127 127
0.008341 -0.017531 0.173126 -0.500296 0.377530 -0.779214 127 127 127
0.008378 -0.017342 0.173192 -0.502485 0.357611 -0.787162 127 127 127
0.008412 -0.017152 0.173254 -0.503549 0.329661 -0.798600 127 127 127
0.008443 -0.016963 0.173309 -0.503775 0.302764 -0.809039 127 127 127
0.008472 -0.016773 0.173360 -0.501470 0.279393 -0.818821 127 127 127
0.008499 -0.016582 0.173407 -0.498259 0.262899 -0.826210 129 129 129
0.008525 -0.016392 0.173452 -0.494022 0.247806 -0.833387 130 130 130
0.008549 -0.016201 0.173492 -0.491699 0.235667 -0.838268 132 132 132
0.008573 -0.016010 0.173532 -0.491754 0.229372 -0.839980 132 132 132
0.008595 -0.015819 0.173569 -0.490840 0.225707 -0.841506 132 132 132
0.008618 -0.015628 0.173608 -0.493587 0.222558 -0.840738 133 133 133
0.008640 -0.015437 0.173644 -0.499778 0.211695 -0.839885 133 133 133
0.008661 -0.015246 0.173679 -0.507865 0.200380 -0.837807 135 135 135
0.008682 -0.015054 0.173712 -0.517677 0.187411 -0.834798 136 136 136
0.008701 -0.014863 0.173742 -0.527285 0.174320 -0.831615 137 137 137
0.008718 -0.014671 0.173770 -0.537150 0.160073 -0.828159 136 136 136
0.008735 -0.014479 0.173795 -0.546393 0.143950 -0.825065 136 136 136
0.008750 -0.014287 0.173817 -0.549709 0.137321 -0.823992 136 136 136
0.008764 -0.014095 0.173838 -0.556544 0.123895 -0.821528 135 135 135
0.008777 -0.013903 0.173856 -0.563686 0.110220 -0.818602 135 135 135
0.008790 -0.013711 0.173873 -0.565358 0.105509 -0.818070 136 136 136
0.008802 -0.013519 0.173889 -0.565371 0.100799 -0.818654 136 136 136
0.008814 -0.013326 0.173905 -0.564751 0.097658 -0.819463 137 137 137
0.008825 -0.013134 0.173920 -0.562804 0.099349 -0.820598 137 137 137
0.008837 -0.012941 0.173935 -0.560898 0.102104 -0.821564 137 137 137
0.008849 -0.012749 0.173951 -0.559551 0.095624 -0.823261 137 137 137
0.008860 -0.012556 0.173965 -0.557908 0.086409 -0.825392 138 138 138
0.008870 -0.012364 0.173977 -0.554262 0.085552 -0.827934 137 137 137
0.008881 -0.012171 0.173990 -0.550900 0.088889 -0.829824 137 137 137
0.008892 -0.011979 0.174003 -0.549322 0.083620 -0.831416 138 138 138
0.008902 -0.011786 0.174015 -0.546715 0.076106 -0.833853 138 138 138
0.008911 -0.011593 0.174025 -0.543809 0.074689 -0.835879 138 138 138
0.008921 -0.011400 0.174036 -0.540329 0.078494 -0.837785 138 138 138
0.008931 -0.011208 0.174048 -0.537902 0.075799 -0.839593 138 138 138
0.008940 -0.011015 0.174058 -0.534891 0.073601 -0.841709 137 137 137
0.008950 -0.010822 0.174069 -0.533034 0.079265 -0.842373 138 138 138
0.008960 -0.010629 0.174081 -0.533072 0.079346 -0.842341 138 138 138
0.008970 -0.010436 0.174092 -0.533673 0.074285 -0.842422 137 137 137
0.008980 -0.010243 0.174102 -0.535287 0.066977 -0.842011 137 137 137
0.008988 -0.010050 0.174111 -0.537028 0.061480 -0.841321 137 137 137
0.008997 -0.009857 0.174119 -0.539088 0.057867 -0.840259 137 137 137
0.009005 -0.009664 0.174127 -0.540886 0.051539 -0.839516 138 138 138
0.009013 -0.009471 0.174133 -0.541730 0.047204 -0.839226 139 139 139
0.009020 -0.009278 0.174139 -0.542575 0.042033 -0.838955 140 140 140
0.009026 -0.009085 0.174144 -0.542222 0.037759 -0.839386 140 140 140
0.009033 -0.008892 0.174148 -0.540755 0.043284 -0.840066 139 139 139
0.009041 -0.008699 0.174155 -0.538908 0.058243 -0.840349 139 139 139
0.009050 -0.008505 0.174164 -0.538348 0.071829 -0.839656 138 138 138
0.009060 -0.008312 0.174176 -0.538327 0.079963 -0.838934 137 137 137
0.009071 -0.008119 0.174188 -0.540015 0.085661 -0.837285 138 138 138
0.009082 -0.007925 0.174201 -0.543322 0.094901 -0.834143 139 139 139
0.009094 -0.007732 0.174216 -0.547180 0.097622 -0.831302 138 138 138
0.009105 -0.007539 0.174230 -0.553956 0.085513 -0.828143 137 137 137
0.009114 -0.007345 0.174240 -0.561769 0.068919 -0.824419 137 137 137
0.009123 -0.007152 0.174248 -0.569168 0.045055 -0.820986 136 136 136
0.009128 -0.006958 0.174250 -0.576146 0.008481 -0.817303 135 135 135
0.009130 -0.006765 0.174244 -0.581586 -0.029993 -0.812932 134 134 134
0.009128 -0.006572 0.174233 -0.584705 -0.065330 -0.808612 132 132 132
